ply
format ascii 1.0
element vertex 494
property float x
property float y
property float z
property uchar red
property uchar green
property uchar blue
end_header
-0.22727273404598236 -1.3383837938308716 0.8333333134651184 255 255 255
-0.22727273404598236 -1.3383837938308716 0.8838383555412292 255 255 255
-0.17676767706871033 -1.3383837938308716 0.8838383555412292 255 255 255
-0.1262626200914383 -1.3383837938308716 0.8838383555412292 255 255 255
-0.1262626200914383 -1.3383837938308716 0.9343434572219849 255 255 255
-0.07575757801532745 -1.3383837938308716 0.9343434572219849 255 255 255
-0.07575757801532745 -1.2878787517547607 0.9343434572219849 255 255 255
-0.02525252476334572 -1.3383837938308716 0.9343434572219849 255 255 255
-0.02525252476334572 -1.3383837938308716 0.9848484992980957 255 255 255
-0.02525252476334572 -1.2878787517547607 0.9343434572219849 255 255 255
-0.02525252476334572 -1.2878787517547607 0.9848484992980957 255 255 255
0.02525252476334572 -1.3383837938308716 0.9848484992980957 255 255 255
0.02525252476334572 -1.2878787517547607 0.9848484992980957 255 255 255
0.07575757801532745 -1.3383837938308716 0.9848484992980957 255 255 255
0.07575757801532745 -1.3383837938308716 1.0353535413742065 255 255 255
0.07575757801532745 -1.3383837938308716 1.0858585834503174 255 255 255
0.07575757801532745 -1.2878787517547607 0.9848484992980957 255 255 255
0.07575757801532745 -1.2878787517547607 1.0353535413742065 255 255 255
0.07575757801532745 -1.2878787517547607 1.0858585834503174 255 255 255
0.07575757801532745 -1.2878787517547607 1.1363636255264282 255 255 255
0.07575757801532745 -1.2878787517547607 1.186868667602539 255 255 255
0.07575757801532745 -1.2878787517547607 1.23737370967865 255 255 255
0.07575757801532745 -1.2878787517547607 1.4393939971923828 255 255 255
0.07575757801532745 -1.2878787517547607 1.4898990392684937 255 255 255
0.07575757801532745 -1.2878787517547607 1.5404040813446045 255 255 255
0.07575757801532745 -1.23737370967865 1.4898990392684937 255 255 255
0.07575757801532745 -1.23737370967865 1.5404040813446045 255 255 255
0.07575757801532745 -1.23737370967865 1.5909091234207153 255 255 255
0.07575757801532745 -1.186868667602539 1.5909091234207153 255 255 255
0.1262626200914383 -1.6414141654968262 0.02525252476334572 255 255 255
0.1262626200914383 -1.4393939971923828 1.0858585834503174 255 255 255
0.1262626200914383 -1.3888888359069824 1.1363636255264282 255 255 255
0.1262626200914383 -1.3888888359069824 1.186868667602539 255 255 255
0.1262626200914383 -1.3888888359069824 1.23737370967865 255 255 255
0.1262626200914383 -1.3383837938308716 1.1363636255264282 255 255 255
0.1262626200914383 -1.3383837938308716 1.186868667602539 255 255 255
0.1262626200914383 -1.3383837938308716 1.23737370967865 255 255 255
0.1262626200914383 -1.3383837938308716 1.2878787517547607 255 255 255
0.1262626200914383 -1.3383837938308716 1.4393939971923828 255 255 255
0.1262626200914383 -1.3383837938308716 1.4898990392684937 255 255 255
0.1262626200914383 -1.3383837938308716 1.5404040813446045 255 255 255
0.1262626200914383 -1.2878787517547607 1.0858585834503174 255 255 255
0.1262626200914383 -1.2878787517547607 1.1363636255264282 255 255 255
0.1262626200914383 -1.2878787517547607 1.2878787517547607 255 255 255
0.1262626200914383 -1.2878787517547607 1.4393939971923828 255 255 255
0.1262626200914383 -1.2878787517547607 1.5909091234207153 255 255 255
0.1262626200914383 -1.23737370967865 1.1363636255264282 255 255 255
0.1262626200914383 -1.23737370967865 1.186868667602539 255 255 255
0.1262626200914383 -1.23737370967865 1.23737370967865 255 255 255
0.1262626200914383 -1.23737370967865 1.2878787517547607 255 255 255
0.1262626200914383 -1.23737370967865 1.4393939971923828 255 255 255
0.1262626200914383 -1.23737370967865 1.6414141654968262 255 255 255
0.1262626200914383 -1.186868667602539 1.4898990392684937 255 255 255
0.1262626200914383 -1.186868667602539 1.5404040813446045 255 255 255
0.1262626200914383 -1.186868667602539 1.5909091234207153 255 255 255
0.1262626200914383 -1.1363636255264282 1.5404040813446045 255 255 255
0.1262626200914383 -1.1363636255264282 1.5909091234207153 255 255 255
0.17676767706871033 -1.6414141654968262 0.02525252476334572 255 255 255
0.17676767706871033 -1.5909091234207153 0.02525252476334572 255 255 255
0.17676767706871033 -1.4898990392684937 1.0858585834503174 255 255 255
0.17676767706871033 -1.4898990392684937 1.1363636255264282 255 255 255
0.17676767706871033 -1.4898990392684937 1.23737370967865 255 255 255
0.17676767706871033 -1.4393939971923828 0.5303030014038086 255 255 255
0.17676767706871033 -1.4393939971923828 0.5808081030845642 255 255 255
0.17676767706871033 -1.4393939971923828 0.631313145160675 255 255 255
0.17676767706871033 -1.4393939971923828 0.6818181872367859 255 255 255
0.17676767706871033 -1.4393939971923828 0.7323232293128967 255 255 255
0.17676767706871033 -1.4393939971923828 0.7828282713890076 255 255 255
0.17676767706871033 -1.4393939971923828 0.8333333134651184 255 255 255
0.17676767706871033 -1.4393939971923828 0.9848484992980957 255 255 255
0.17676767706871033 -1.4393939971923828 1.0353535413742065 255 255 255
0.17676767706871033 -1.4393939971923828 1.1363636255264282 255 255 255
0.17676767706871033 -1.4393939971923828 1.186868667602539 255 255 255
0.17676767706871033 -1.4393939971923828 1.23737370967865 255 255 255
0.17676767706871033 -1.4393939971923828 1.2878787517547607 255 255 255
0.17676767706871033 -1.3888888359069824 0.631313145160675 255 255 255
0.17676767706871033 -1.3888888359069824 0.6818181872367859 255 255 255
0.17676767706871033 -1.3888888359069824 0.7323232293128967 255 255 255
0.17676767706871033 -1.3888888359069824 0.7828282713890076 255 255 255
0.17676767706871033 -1.3888888359069824 0.8333333134651184 255 255 255
0.17676767706871033 -1.3888888359069824 0.8838383555412292 255 255 255
0.17676767706871033 -1.3888888359069824 0.9343434572219849 255 255 255
0.17676767706871033 -1.3888888359069824 0.9848484992980957 255 255 255
0.17676767706871033 -1.3888888359069824 1.0353535413742065 255 255 255
0.17676767706871033 -1.3888888359069824 1.0858585834503174 255 255 255
0.17676767706871033 -1.3888888359069824 1.2878787517547607 255 255 255
0.17676767706871033 -1.3383837938308716 0.7323232293128967 255 255 255
0.17676767706871033 -1.3383837938308716 0.7828282713890076 255 255 255
0.17676767706871033 -1.3383837938308716 0.8333333134651184 255 255 255
0.17676767706871033 -1.3383837938308716 0.8838383555412292 255 255 255
0.17676767706871033 -1.3383837938308716 0.9343434572219849 255 255 255
0.17676767706871033 -1.3383837938308716 1.1363636255264282 255 255 255
0.17676767706871033 -1.3383837938308716 1.3383837938308716 255 255 255
0.17676767706871033 -1.3383837938308716 1.4393939971923828 255 255 255
0.17676767706871033 -1.3383837938308716 1.4898990392684937 255 255 255
0.17676767706871033 -1.3383837938308716 1.5404040813446045 255 255 255
0.17676767706871033 -1.2878787517547607 1.186868667602539 255 255 255
0.17676767706871033 -1.2878787517547607 1.3383837938308716 255 255 255
0.17676767706871033 -1.2878787517547607 1.3888888359069824 255 255 255
0.17676767706871033 -1.2878787517547607 1.5909091234207153 255 255 255
0.17676767706871033 -1.2878787517547607 1.6414141654968262 255 255 255
0.17676767706871033 -1.23737370967865 1.186868667602539 255 255 255
0.17676767706871033 -1.23737370967865 1.23737370967865 255 255 255
0.17676767706871033 -1.23737370967865 1.2878787517547607 255 255 255
0.17676767706871033 -1.23737370967865 1.3383837938308716 255 255 255
0.17676767706871033 -1.23737370967865 1.4393939971923828 255 255 255
0.17676767706871033 -1.23737370967865 1.6414141654968262 255 255 255
0.17676767706871033 -1.186868667602539 1.4898990392684937 255 255 255
0.17676767706871033 -1.186868667602539 1.6414141654968262 255 255 255
0.17676767706871033 -1.1363636255264282 1.4898990392684937 255 255 255
0.17676767706871033 -1.1363636255264282 1.5404040813446045 255 255 255
0.17676767706871033 -1.1363636255264282 1.5909091234207153 255 255 255
0.22727273404598236 -1.6414141654968262 0.07575757801532745 255 255 255
0.22727273404598236 -1.5909091234207153 0.02525252476334572 255 255 255
0.22727273404598236 -1.5909091234207153 0.07575757801532745 255 255 255
0.22727273404598236 -1.5909091234207153 0.1262626200914383 255 255 255
0.22727273404598236 -1.5404040813446045 0.17676767706871033 255 255 255
0.22727273404598236 -1.5404040813446045 0.22727273404598236 255 255 255
0.22727273404598236 -1.5404040813446045 0.4292929172515869 255 255 255
0.22727273404598236 -1.5404040813446045 0.47979798913002014 255 255 255
0.22727273404598236 -1.4898990392684937 0.2777777910232544 255 255 255
0.22727273404598236 -1.4898990392684937 0.32828283309936523 255 255 255
0.22727273404598236 -1.4898990392684937 0.3787878751754761 255 255 255
0.22727273404598236 -1.4898990392684937 0.4292929172515869 255 255 255
0.22727273404598236 -1.4898990392684937 0.47979798913002014 255 255 255
0.22727273404598236 -1.4898990392684937 0.5303030014038086 255 255 255
0.22727273404598236 -1.4898990392684937 0.5808081030845642 255 255 255
0.22727273404598236 -1.4898990392684937 0.631313145160675 255 255 255
0.22727273404598236 -1.4898990392684937 0.6818181872367859 255 255 255
0.22727273404598236 -1.4898990392684937 0.7323232293128967 255 255 255
0.22727273404598236 -1.4898990392684937 0.7828282713890076 255 255 255
0.22727273404598236 -1.4898990392684937 0.8333333134651184 255 255 255
0.22727273404598236 -1.4898990392684937 0.8838383555412292 255 255 255
0.22727273404598236 -1.4898990392684937 0.9343434572219849 255 255 255
0.22727273404598236 -1.4898990392684937 0.9848484992980957 255 255 255
0.22727273404598236 -1.4898990392684937 1.0353535413742065 255 255 255
0.22727273404598236 -1.4898990392684937 1.0858585834503174 255 255 255
0.22727273404598236 -1.4898990392684937 1.1363636255264282 255 255 255
0.22727273404598236 -1.4898990392684937 1.186868667602539 255 255 255
0.22727273404598236 -1.4898990392684937 1.23737370967865 255 255 255
0.22727273404598236 -1.4898990392684937 1.2878787517547607 255 255 255
0.22727273404598236 -1.4393939971923828 0.4292929172515869 255 255 255
0.22727273404598236 -1.4393939971923828 0.47979798913002014 255 255 255
0.22727273404598236 -1.4393939971923828 0.8838383555412292 255 255 255
0.22727273404598236 -1.4393939971923828 0.9343434572219849 255 255 255
0.22727273404598236 -1.4393939971923828 1.3383837938308716 255 255 255
0.22727273404598236 -1.3888888359069824 0.47979798913002014 255 255 255
0.22727273404598236 -1.3888888359069824 0.5303030014038086 255 255 255
0.22727273404598236 -1.3888888359069824 0.5808081030845642 255 255 255
0.22727273404598236 -1.3888888359069824 0.631313145160675 255 255 255
0.22727273404598236 -1.3888888359069824 1.3383837938308716 255 255 255
0.22727273404598236 -1.3383837938308716 0.47979798913002014 255 255 255
0.22727273404598236 -1.3383837938308716 0.6818181872367859 255 255 255
0.22727273404598236 -1.3383837938308716 0.9848484992980957 255 255 255
0.22727273404598236 -1.3383837938308716 1.0353535413742065 255 255 255
0.22727273404598236 -1.3383837938308716 1.0858585834503174 255 255 255
0.22727273404598236 -1.3383837938308716 1.3888888359069824 255 255 255
0.22727273404598236 -1.3383837938308716 1.4393939971923828 255 255 255
0.22727273404598236 -1.3383837938308716 1.4898990392684937 255 255 255
0.22727273404598236 -1.3383837938308716 1.5404040813446045 255 255 255
0.22727273404598236 -1.3383837938308716 1.5909091234207153 255 255 255
0.22727273404598236 -1.2878787517547607 0.7323232293128967 255 255 255
0.22727273404598236 -1.2878787517547607 0.7828282713890076 255 255 255
0.22727273404598236 -1.2878787517547607 0.8333333134651184 255 255 255
0.22727273404598236 -1.2878787517547607 0.8838383555412292 255 255 255
0.22727273404598236 -1.2878787517547607 0.9343434572219849 255 255 255
0.22727273404598236 -1.2878787517547607 1.1363636255264282 255 255 255
0.22727273404598236 -1.2878787517547607 1.5909091234207153 255 255 255
0.22727273404598236 -1.23737370967865 1.186868667602539 255 255 255
0.22727273404598236 -1.23737370967865 1.23737370967865 255 255 255
0.22727273404598236 -1.23737370967865 1.2878787517547607 255 255 255
0.22727273404598236 -1.23737370967865 1.3383837938308716 255 255 255
0.22727273404598236 -1.23737370967865 1.3888888359069824 255 255 255
0.22727273404598236 -1.23737370967865 1.4393939971923828 255 255 255
0.22727273404598236 -1.23737370967865 1.4898990392684937 255 255 255
0.22727273404598236 -1.23737370967865 1.6414141654968262 255 255 255
0.22727273404598236 -1.186868667602539 1.4898990392684937 255 255 255
0.22727273404598236 -1.186868667602539 1.5909091234207153 255 255 255
0.22727273404598236 -1.1363636255264282 1.4898990392684937 255 255 255
0.22727273404598236 -1.1363636255264282 1.5404040813446045 255 255 255
0.2777777910232544 -1.5909091234207153 0.02525252476334572 255 255 255
0.2777777910232544 -1.5909091234207153 0.07575757801532745 255 255 255
0.2777777910232544 -1.5909091234207153 0.1262626200914383 255 255 255
0.2777777910232544 -1.5404040813446045 0.02525252476334572 255 255 255
0.2777777910232544 -1.5404040813446045 0.07575757801532745 255 255 255
0.2777777910232544 -1.5404040813446045 0.1262626200914383 255 255 255
0.2777777910232544 -1.5404040813446045 0.17676767706871033 255 255 255
0.2777777910232544 -1.5404040813446045 0.22727273404598236 255 255 255
0.2777777910232544 -1.5404040813446045 0.2777777910232544 255 255 255
0.2777777910232544 -1.5404040813446045 0.32828283309936523 255 255 255
0.2777777910232544 -1.5404040813446045 0.47979798913002014 255 255 255
0.2777777910232544 -1.5404040813446045 0.5303030014038086 255 255 255
0.2777777910232544 -1.5404040813446045 0.9343434572219849 255 255 255
0.2777777910232544 -1.5404040813446045 0.9848484992980957 255 255 255
0.2777777910232544 -1.5404040813446045 1.0353535413742065 255 255 255
0.2777777910232544 -1.5404040813446045 1.0858585834503174 255 255 255
0.2777777910232544 -1.5404040813446045 1.1363636255264282 255 255 255
0.2777777910232544 -1.5404040813446045 1.186868667602539 255 255 255
0.2777777910232544 -1.5404040813446045 1.23737370967865 255 255 255
0.2777777910232544 -1.4898990392684937 0.22727273404598236 255 255 255
0.2777777910232544 -1.4898990392684937 0.2777777910232544 255 255 255
0.2777777910232544 -1.4898990392684937 0.32828283309936523 255 255 255
0.2777777910232544 -1.4898990392684937 0.3787878751754761 255 255 255
0.2777777910232544 -1.4898990392684937 0.4292929172515869 255 255 255
0.2777777910232544 -1.4898990392684937 0.5808081030845642 255 255 255
0.2777777910232544 -1.4898990392684937 0.631313145160675 255 255 255
0.2777777910232544 -1.4898990392684937 0.6818181872367859 255 255 255
0.2777777910232544 -1.4898990392684937 0.7323232293128967 255 255 255
0.2777777910232544 -1.4898990392684937 0.7828282713890076 255 255 255
0.2777777910232544 -1.4898990392684937 0.8333333134651184 255 255 255
0.2777777910232544 -1.4898990392684937 0.8838383555412292 255 255 255
0.2777777910232544 -1.4898990392684937 1.2878787517547607 255 255 255
0.2777777910232544 -1.4393939971923828 0.32828283309936523 255 255 255
0.2777777910232544 -1.4393939971923828 0.3787878751754761 255 255 255
0.2777777910232544 -1.4393939971923828 0.4292929172515869 255 255 255
0.2777777910232544 -1.4393939971923828 0.47979798913002014 255 255 255
0.2777777910232544 -1.4393939971923828 1.3383837938308716 255 255 255
0.2777777910232544 -1.3888888359069824 0.4292929172515869 255 255 255
0.2777777910232544 -1.3888888359069824 1.3888888359069824 255 255 255
0.2777777910232544 -1.3383837938308716 0.4292929172515869 255 255 255
0.2777777910232544 -1.3383837938308716 0.47979798913002014 255 255 255
0.2777777910232544 -1.3383837938308716 0.5303030014038086 255 255 255
0.2777777910232544 -1.3383837938308716 0.5808081030845642 255 255 255
0.2777777910232544 -1.3383837938308716 0.631313145160675 255 255 255
0.2777777910232544 -1.3383837938308716 0.9848484992980957 255 255 255
0.2777777910232544 -1.3383837938308716 1.0353535413742065 255 255 255
0.2777777910232544 -1.3383837938308716 1.0858585834503174 255 255 255
0.2777777910232544 -1.3383837938308716 1.4393939971923828 255 255 255
0.2777777910232544 -1.2878787517547607 0.5303030014038086 255 255 255
0.2777777910232544 -1.2878787517547607 0.5808081030845642 255 255 255
0.2777777910232544 -1.2878787517547607 0.631313145160675 255 255 255
0.2777777910232544 -1.2878787517547607 0.6818181872367859 255 255 255
0.2777777910232544 -1.2878787517547607 0.7323232293128967 255 255 255
0.2777777910232544 -1.2878787517547607 0.7828282713890076 255 255 255
0.2777777910232544 -1.2878787517547607 0.8333333134651184 255 255 255
0.2777777910232544 -1.2878787517547607 0.8838383555412292 255 255 255
0.2777777910232544 -1.2878787517547607 0.9343434572219849 255 255 255
0.2777777910232544 -1.2878787517547607 1.1363636255264282 255 255 255
0.2777777910232544 -1.2878787517547607 1.186868667602539 255 255 255
0.2777777910232544 -1.2878787517547607 1.23737370967865 255 255 255
0.2777777910232544 -1.2878787517547607 1.4898990392684937 255 255 255
0.2777777910232544 -1.2878787517547607 1.5404040813446045 255 255 255
0.2777777910232544 -1.23737370967865 1.2878787517547607 255 255 255
0.2777777910232544 -1.23737370967865 1.3383837938308716 255 255 255
0.2777777910232544 -1.23737370967865 1.3888888359069824 255 255 255
0.2777777910232544 -1.23737370967865 1.4393939971923828 255 255 255
0.2777777910232544 -1.23737370967865 1.5404040813446045 255 255 255
0.2777777910232544 -1.23737370967865 1.5909091234207153 255 255 255
0.2777777910232544 -1.186868667602539 1.5404040813446045 255 255 255
0.2777777910232544 -1.186868667602539 1.5909091234207153 255 255 255
0.2777777910232544 -1.1363636255264282 1.5404040813446045 255 255 255
0.32828283309936523 -1.5404040813446045 0.47979798913002014 255 255 255
0.32828283309936523 -1.5404040813446045 0.9343434572219849 255 255 255
0.32828283309936523 -1.5404040813446045 0.9848484992980957 255 255 255
0.32828283309936523 -1.5404040813446045 1.0353535413742065 255 255 255
0.32828283309936523 -1.5404040813446045 1.0858585834503174 255 255 255
0.32828283309936523 -1.5404040813446045 1.1363636255264282 255 255 255
0.32828283309936523 -1.4898990392684937 0.4292929172515869 255 255 255
0.32828283309936523 -1.4898990392684937 0.47979798913002014 255 255 255
0.32828283309936523 -1.4898990392684937 0.5303030014038086 255 255 255
0.32828283309936523 -1.4898990392684937 0.5808081030845642 255 255 255
0.32828283309936523 -1.4898990392684937 0.631313145160675 255 255 255
0.32828283309936523 -1.4898990392684937 0.6818181872367859 255 255 255
0.32828283309936523 -1.4898990392684937 0.7323232293128967 255 255 255
0.32828283309936523 -1.4898990392684937 0.7828282713890076 255 255 255
0.32828283309936523 -1.4898990392684937 0.8333333134651184 255 255 255
0.32828283309936523 -1.4898990392684937 0.8838383555412292 255 255 255
0.32828283309936523 -1.4898990392684937 1.186868667602539 255 255 255
0.32828283309936523 -1.4898990392684937 1.23737370967865 255 255 255
0.32828283309936523 -1.4898990392684937 1.2878787517547607 255 255 255
0.32828283309936523 -1.4898990392684937 1.3383837938308716 255 255 255
0.32828283309936523 -1.4393939971923828 0.5303030014038086 255 255 255
0.32828283309936523 -1.4393939971923828 1.3888888359069824 255 255 255
0.32828283309936523 -1.3888888359069824 0.47979798913002014 255 255 255
0.32828283309936523 -1.3888888359069824 1.4393939971923828 255 255 255
0.32828283309936523 -1.3383837938308716 0.4292929172515869 255 255 255
0.32828283309936523 -1.3383837938308716 0.9848484992980957 255 255 255
0.32828283309936523 -1.3383837938308716 1.0353535413742065 255 255 255
0.32828283309936523 -1.3383837938308716 1.0858585834503174 255 255 255
0.32828283309936523 -1.3383837938308716 1.1363636255264282 255 255 255
0.32828283309936523 -1.3383837938308716 1.4393939971923828 255 255 255
0.32828283309936523 -1.2878787517547607 0.47979798913002014 255 255 255
0.32828283309936523 -1.2878787517547607 0.5303030014038086 255 255 255
0.32828283309936523 -1.2878787517547607 0.5808081030845642 255 255 255
0.32828283309936523 -1.2878787517547607 0.6818181872367859 255 255 255
0.32828283309936523 -1.2878787517547607 0.7323232293128967 255 255 255
0.32828283309936523 -1.2878787517547607 0.7828282713890076 255 255 255
0.32828283309936523 -1.2878787517547607 0.8333333134651184 255 255 255
0.32828283309936523 -1.2878787517547607 0.8838383555412292 255 255 255
0.32828283309936523 -1.2878787517547607 0.9343434572219849 255 255 255
0.32828283309936523 -1.2878787517547607 1.186868667602539 255 255 255
0.32828283309936523 -1.2878787517547607 1.23737370967865 255 255 255
0.32828283309936523 -1.2878787517547607 1.4393939971923828 255 255 255
0.32828283309936523 -1.23737370967865 0.631313145160675 255 255 255
0.32828283309936523 -1.23737370967865 1.2878787517547607 255 255 255
0.32828283309936523 -1.23737370967865 1.3383837938308716 255 255 255
0.32828283309936523 -1.23737370967865 1.3888888359069824 255 255 255
0.32828283309936523 -1.23737370967865 1.4393939971923828 255 255 255
0.32828283309936523 -1.23737370967865 1.5404040813446045 255 255 255
0.32828283309936523 -1.23737370967865 1.5909091234207153 255 255 255
0.32828283309936523 -1.186868667602539 1.5909091234207153 255 255 255
0.3787878751754761 -1.4898990392684937 0.5808081030845642 255 255 255
0.3787878751754761 -1.4898990392684937 0.631313145160675 255 255 255
0.3787878751754761 -1.4898990392684937 0.6818181872367859 255 255 255
0.3787878751754761 -1.4898990392684937 0.7323232293128967 255 255 255
0.3787878751754761 -1.4898990392684937 0.7828282713890076 255 255 255
0.3787878751754761 -1.4898990392684937 0.8333333134651184 255 255 255
0.3787878751754761 -1.4898990392684937 0.8838383555412292 255 255 255
0.3787878751754761 -1.4898990392684937 0.9343434572219849 255 255 255
0.3787878751754761 -1.4898990392684937 0.9848484992980957 255 255 255
0.3787878751754761 -1.4898990392684937 1.0353535413742065 255 255 255
0.3787878751754761 -1.4898990392684937 1.0858585834503174 255 255 255
0.3787878751754761 -1.4898990392684937 1.1363636255264282 255 255 255
0.3787878751754761 -1.4898990392684937 1.186868667602539 255 255 255
0.3787878751754761 -1.4898990392684937 1.23737370967865 255 255 255
0.3787878751754761 -1.4393939971923828 0.5303030014038086 255 255 255
0.3787878751754761 -1.4393939971923828 1.2878787517547607 255 255 255
0.3787878751754761 -1.4393939971923828 1.3383837938308716 255 255 255
0.3787878751754761 -1.3888888359069824 0.4292929172515869 255 255 255
0.3787878751754761 -1.3888888359069824 0.47979798913002014 255 255 255
0.3787878751754761 -1.3888888359069824 1.3888888359069824 255 255 255
0.3787878751754761 -1.3888888359069824 1.4393939971923828 255 255 255
0.3787878751754761 -1.3383837938308716 0.4292929172515869 255 255 255
0.3787878751754761 -1.3383837938308716 1.0353535413742065 255 255 255
0.3787878751754761 -1.3383837938308716 1.0858585834503174 255 255 255
0.3787878751754761 -1.3383837938308716 1.1363636255264282 255 255 255
0.3787878751754761 -1.3383837938308716 1.186868667602539 255 255 255
0.3787878751754761 -1.3383837938308716 1.23737370967865 255 255 255
0.3787878751754761 -1.3383837938308716 1.2878787517547607 255 255 255
0.3787878751754761 -1.3383837938308716 1.4393939971923828 255 255 255
0.3787878751754761 -1.2878787517547607 0.47979798913002014 255 255 255
0.3787878751754761 -1.2878787517547607 0.6818181872367859 255 255 255
0.3787878751754761 -1.2878787517547607 0.7323232293128967 255 255 255
0.3787878751754761 -1.2878787517547607 0.7828282713890076 255 255 255
0.3787878751754761 -1.2878787517547607 0.8333333134651184 255 255 255
0.3787878751754761 -1.2878787517547607 0.8838383555412292 255 255 255
0.3787878751754761 -1.2878787517547607 0.9343434572219849 255 255 255
0.3787878751754761 -1.2878787517547607 0.9848484992980957 255 255 255
0.3787878751754761 -1.2878787517547607 1.23737370967865 255 255 255
0.3787878751754761 -1.2878787517547607 1.2878787517547607 255 255 255
0.3787878751754761 -1.2878787517547607 1.3383837938308716 255 255 255
0.3787878751754761 -1.2878787517547607 1.3888888359069824 255 255 255
0.3787878751754761 -1.2878787517547607 1.4393939971923828 255 255 255
0.3787878751754761 -1.23737370967865 0.47979798913002014 255 255 255
0.3787878751754761 -1.23737370967865 0.5303030014038086 255 255 255
0.3787878751754761 -1.23737370967865 0.5808081030845642 255 255 255
0.3787878751754761 -1.23737370967865 0.631313145160675 255 255 255
0.3787878751754761 -1.23737370967865 1.3383837938308716 255 255 255
0.3787878751754761 -1.23737370967865 1.3888888359069824 255 255 255
0.4292929172515869 -1.4898990392684937 0.5808081030845642 255 255 255
0.4292929172515869 -1.4898990392684937 0.631313145160675 255 255 255
0.4292929172515869 -1.4898990392684937 0.6818181872367859 255 255 255
0.4292929172515869 -1.4898990392684937 0.7323232293128967 255 255 255
0.4292929172515869 -1.4898990392684937 0.7828282713890076 255 255 255
0.4292929172515869 -1.4898990392684937 0.8333333134651184 255 255 255
0.4292929172515869 -1.4898990392684937 0.8838383555412292 255 255 255
0.4292929172515869 -1.4898990392684937 0.9343434572219849 255 255 255
0.4292929172515869 -1.4898990392684937 0.9848484992980957 255 255 255
0.4292929172515869 -1.4898990392684937 1.0353535413742065 255 255 255
0.4292929172515869 -1.4393939971923828 0.47979798913002014 255 255 255
0.4292929172515869 -1.4393939971923828 0.5303030014038086 255 255 255
0.4292929172515869 -1.4393939971923828 0.9848484992980957 255 255 255
0.4292929172515869 -1.4393939971923828 1.0353535413742065 255 255 255
0.4292929172515869 -1.4393939971923828 1.0858585834503174 255 255 255
0.4292929172515869 -1.4393939971923828 1.1363636255264282 255 255 255
0.4292929172515869 -1.4393939971923828 1.186868667602539 255 255 255
0.4292929172515869 -1.4393939971923828 1.23737370967865 255 255 255
0.4292929172515869 -1.3888888359069824 0.4292929172515869 255 255 255
0.4292929172515869 -1.3888888359069824 0.9848484992980957 255 255 255
0.4292929172515869 -1.3888888359069824 1.0353535413742065 255 255 255
0.4292929172515869 -1.3888888359069824 1.0858585834503174 255 255 255
0.4292929172515869 -1.3888888359069824 1.1363636255264282 255 255 255
0.4292929172515869 -1.3888888359069824 1.186868667602539 255 255 255
0.4292929172515869 -1.3888888359069824 1.23737370967865 255 255 255
0.4292929172515869 -1.3888888359069824 1.2878787517547607 255 255 255
0.4292929172515869 -1.3888888359069824 1.3383837938308716 255 255 255
0.4292929172515869 -1.3888888359069824 1.3888888359069824 255 255 255
0.4292929172515869 -1.3888888359069824 1.4393939971923828 255 255 255
0.4292929172515869 -1.3383837938308716 0.3787878751754761 255 255 255
0.4292929172515869 -1.3383837938308716 0.9343434572219849 255 255 255
0.4292929172515869 -1.3383837938308716 0.9848484992980957 255 255 255
0.4292929172515869 -1.3383837938308716 1.3383837938308716 255 255 255
0.4292929172515869 -1.3383837938308716 1.3888888359069824 255 255 255
0.4292929172515869 -1.3383837938308716 1.4393939971923828 255 255 255
0.4292929172515869 -1.2878787517547607 0.32828283309936523 255 255 255
0.4292929172515869 -1.2878787517547607 0.3787878751754761 255 255 255
0.4292929172515869 -1.2878787517547607 0.4292929172515869 255 255 255
0.4292929172515869 -1.2878787517547607 0.7323232293128967 255 255 255
0.4292929172515869 -1.2878787517547607 0.7828282713890076 255 255 255
0.4292929172515869 -1.2878787517547607 0.8333333134651184 255 255 255
0.4292929172515869 -1.2878787517547607 0.8838383555412292 255 255 255
0.4292929172515869 -1.23737370967865 0.4292929172515869 255 255 255
0.4292929172515869 -1.23737370967865 0.47979798913002014 255 255 255
0.4292929172515869 -1.23737370967865 0.631313145160675 255 255 255
0.4292929172515869 -1.23737370967865 0.6818181872367859 255 255 255
0.4292929172515869 -1.186868667602539 0.02525252476334572 255 255 255
0.4292929172515869 -1.186868667602539 0.5303030014038086 255 255 255
0.4292929172515869 -1.186868667602539 0.5808081030845642 255 255 255
0.47979798913002014 -1.4898990392684937 0.7323232293128967 255 255 255
0.47979798913002014 -1.4898990392684937 0.7828282713890076 255 255 255
0.47979798913002014 -1.4393939971923828 0.47979798913002014 255 255 255
0.47979798913002014 -1.4393939971923828 0.5303030014038086 255 255 255
0.47979798913002014 -1.4393939971923828 0.5808081030845642 255 255 255
0.47979798913002014 -1.4393939971923828 0.631313145160675 255 255 255
0.47979798913002014 -1.4393939971923828 0.6818181872367859 255 255 255
0.47979798913002014 -1.4393939971923828 0.7323232293128967 255 255 255
0.47979798913002014 -1.4393939971923828 0.7828282713890076 255 255 255
0.47979798913002014 -1.4393939971923828 0.8333333134651184 255 255 255
0.47979798913002014 -1.4393939971923828 0.8838383555412292 255 255 255
0.47979798913002014 -1.4393939971923828 0.9343434572219849 255 255 255
0.47979798913002014 -1.3888888359069824 0.4292929172515869 255 255 255
0.47979798913002014 -1.3888888359069824 0.47979798913002014 255 255 255
0.47979798913002014 -1.3888888359069824 0.5808081030845642 255 255 255
0.47979798913002014 -1.3888888359069824 0.631313145160675 255 255 255
0.47979798913002014 -1.3888888359069824 0.6818181872367859 255 255 255
0.47979798913002014 -1.3888888359069824 0.7323232293128967 255 255 255
0.47979798913002014 -1.3888888359069824 0.7828282713890076 255 255 255
0.47979798913002014 -1.3888888359069824 0.8333333134651184 255 255 255
0.47979798913002014 -1.3888888359069824 0.8838383555412292 255 255 255
0.47979798913002014 -1.3888888359069824 0.9343434572219849 255 255 255
0.47979798913002014 -1.3888888359069824 1.3888888359069824 255 255 255
0.47979798913002014 -1.3888888359069824 1.4393939971923828 255 255 255
0.47979798913002014 -1.3383837938308716 0.32828283309936523 255 255 255
0.47979798913002014 -1.3383837938308716 0.3787878751754761 255 255 255
0.47979798913002014 -1.3383837938308716 0.4292929172515869 255 255 255
0.47979798913002014 -1.3383837938308716 0.5303030014038086 255 255 255
0.47979798913002014 -1.3383837938308716 0.5808081030845642 255 255 255
0.47979798913002014 -1.3383837938308716 0.631313145160675 255 255 255
0.47979798913002014 -1.3383837938308716 0.6818181872367859 255 255 255
0.47979798913002014 -1.3383837938308716 0.7323232293128967 255 255 255
0.47979798913002014 -1.3383837938308716 0.7828282713890076 255 255 255
0.47979798913002014 -1.3383837938308716 0.8333333134651184 255 255 255
0.47979798913002014 -1.3383837938308716 0.8838383555412292 255 255 255
0.47979798913002014 -1.3383837938308716 1.3888888359069824 255 255 255
0.47979798913002014 -1.3383837938308716 1.4393939971923828 255 255 255
0.47979798913002014 -1.2878787517547607 0.2777777910232544 255 255 255
0.47979798913002014 -1.2878787517547607 0.4292929172515869 255 255 255
0.47979798913002014 -1.2878787517547607 0.47979798913002014 255 255 255
0.47979798913002014 -1.2878787517547607 0.631313145160675 255 255 255
0.47979798913002014 -1.2878787517547607 0.6818181872367859 255 255 255
0.47979798913002014 -1.2878787517547607 0.7323232293128967 255 255 255
0.47979798913002014 -1.23737370967865 0.17676767706871033 255 255 255
0.47979798913002014 -1.23737370967865 0.22727273404598236 255 255 255
0.47979798913002014 -1.23737370967865 0.2777777910232544 255 255 255
0.47979798913002014 -1.23737370967865 0.32828283309936523 255 255 255
0.47979798913002014 -1.23737370967865 0.3787878751754761 255 255 255
0.47979798913002014 -1.23737370967865 0.47979798913002014 255 255 255
0.47979798913002014 -1.23737370967865 0.631313145160675 255 255 255
0.47979798913002014 -1.186868667602539 0.02525252476334572 255 255 255
0.47979798913002014 -1.186868667602539 0.07575757801532745 255 255 255
0.47979798913002014 -1.186868667602539 0.1262626200914383 255 255 255
0.47979798913002014 -1.186868667602539 0.17676767706871033 255 255 255
0.47979798913002014 -1.186868667602539 0.22727273404598236 255 255 255
0.47979798913002014 -1.186868667602539 0.5303030014038086 255 255 255
0.47979798913002014 -1.186868667602539 0.5808081030845642 255 255 255
0.47979798913002014 -1.1363636255264282 0.02525252476334572 255 255 255
0.47979798913002014 -1.1363636255264282 0.07575757801532745 255 255 255
0.47979798913002014 -1.1363636255264282 0.1262626200914383 255 255 255
0.47979798913002014 -1.1363636255264282 0.5303030014038086 255 255 255
0.5303030014038086 -1.4393939971923828 1.4393939971923828 255 255 255
0.5303030014038086 -1.4393939971923828 1.4898990392684937 255 255 255
0.5303030014038086 -1.3888888359069824 0.5303030014038086 255 255 255
0.5303030014038086 -1.3888888359069824 1.3888888359069824 255 255 255
0.5303030014038086 -1.3888888359069824 1.4393939971923828 255 255 255
0.5303030014038086 -1.3888888359069824 1.4898990392684937 255 255 255
0.5303030014038086 -1.3383837938308716 0.47979798913002014 255 255 255
0.5303030014038086 -1.2878787517547607 0.32828283309936523 255 255 255
0.5303030014038086 -1.2878787517547607 0.3787878751754761 255 255 255
0.5303030014038086 -1.2878787517547607 0.5303030014038086 255 255 255
0.5303030014038086 -1.2878787517547607 0.5808081030845642 255 255 255
0.5303030014038086 -1.23737370967865 0.2777777910232544 255 255 255
0.5303030014038086 -1.23737370967865 0.5303030014038086 255 255 255
0.5303030014038086 -1.23737370967865 0.5808081030845642 255 255 255
0.5303030014038086 -1.186868667602539 0.5303030014038086 255 255 255
0.5808081030845642 -1.4393939971923828 1.4393939971923828 255 255 255
0.5808081030845642 -1.4393939971923828 1.4898990392684937 255 255 255
0.631313145160675 -1.4898990392684937 1.4898990392684937 255 255 255
0.631313145160675 -1.4393939971923828 1.4393939971923828 255 255 255
0.631313145160675 -1.4393939971923828 1.4898990392684937 255 255 255
0.6818181872367859 -1.4898990392684937 1.4898990392684937 255 255 255
0.6818181872367859 -1.4393939971923828 1.4898990392684937 255 255 255
0.6818181872367859 -1.4393939971923828 1.5404040813446045 255 255 255
0.7323232293128967 -1.4898990392684937 1.4898990392684937 255 255 255
0.7323232293128967 -1.4898990392684937 1.5404040813446045 255 255 255
0.7323232293128967 -1.4393939971923828 1.4898990392684937 255 255 255
0.7323232293128967 -1.4393939971923828 1.5404040813446045 255 255 255
0.7828282713890076 -1.4898990392684937 1.5404040813446045 255 255 255
0.8333333134651184 -1.5404040813446045 1.5909091234207153 255 255 255
0.8333333134651184 -1.4898990392684937 1.5404040813446045 255 255 255
0.8333333134651184 -1.4898990392684937 1.5909091234207153 255 255 255
0.8838383555412292 -1.5909091234207153 1.5909091234207153 255 255 255
0.8838383555412292 -1.5404040813446045 1.5909091234207153 255 255 255
0.9343434572219849 -1.5909091234207153 1.5909091234207153 255 255 255
0.9343434572219849 -1.5404040813446045 1.5909091234207153 255 255 255
