ply
format ascii 1.0
element vertex 793
property float x
property float y
property float z
property uchar red
property uchar green
property uchar blue
end_header
0.22499999403953552 -1.559999942779541 0.23749999701976776 40 34 28
0.22499999403953552 -1.5 0.23749999701976776 40 34 28
0.19999998807907104 -1.5299999713897705 0.26249998807907104 44 40 31
0.22499999403953552 -1.559999942779541 0.26249998807907104 44 40 31
0.22499999403953552 -1.5 0.26249998807907104 44 40 31
0.19999998807907104 -1.5299999713897705 0.2874999940395355 61 45 34
0.22499999403953552 -1.559999942779541 0.2874999940395355 61 45 34
0.22499999403953552 -1.5 0.2874999940395355 61 45 34
0.19999998807907104 -1.5299999713897705 0.3125 65 47 37
0.22499999403953552 -1.559999942779541 0.3125 65 47 37
0.22499999403953552 -1.5299999713897705 0.32499998807907104 65 47 37
0.19999998807907104 -1.5299999713897705 0.4124999940395355 61 44 35
0.22499999403953552 -1.559999942779541 0.4124999940395355 61 44 35
0.22499999403953552 -1.5299999713897705 0.3999999761581421 61 44 35
0.19999998807907104 -1.5299999713897705 0.4375 35 18 12
0.22499999403953552 -1.559999942779541 0.4375 35 18 12
0.19999998807907104 -1.5299999713897705 0.4625000059604645 37 8 10
0.22499999403953552 -1.559999942779541 0.4625000059604645 37 8 10
0.19999998807907104 -1.5299999713897705 0.48750001192092896 48 10 15
0.22499999403953552 -1.559999942779541 0.48750001192092896 48 10 15
0.19999998807907104 -1.5299999713897705 0.512499988079071 67 14 21
0.22499999403953552 -1.559999942779541 0.512499988079071 67 14 21
0.19999998807907104 -1.5299999713897705 0.5375000238418579 64 12 28
0.22499999403953552 -1.559999942779541 0.5375000238418579 64 12 28
0.19999998807907104 -1.5299999713897705 0.5625 61 12 13
0.22499999403953552 -1.559999942779541 0.5625 61 12 13
0.22499999403953552 -1.5299999713897705 0.574999988079071 61 12 13
0.22499999403953552 -1.559999942779541 1.087499976158142 45 30 24
0.22499999403953552 -1.5299999713897705 1.0750000476837158 45 30 24
0.22499999403953552 -1.559999942779541 1.1124999523162842 40 9 14
0.19999998807907104 -1.5299999713897705 1.1375000476837158 49 9 13
0.22499999403953552 -1.559999942779541 1.1375000476837158 49 9 13
0.22499999403953552 -1.5299999713897705 1.1500000953674316 49 9 13
0.19999998807907104 -1.4700000286102295 0.3125 44 41 37
0.22499999403953552 -1.440000057220459 0.3125 44 41 37
0.22499999403953552 -1.4700000286102295 0.30000001192092896 44 41 37
0.19999998807907104 -1.4700000286102295 0.3375000059604645 37 31 23
0.22499999403953552 -1.5 0.3375000059604645 37 31 23
0.22499999403953552 -1.440000057220459 0.3375000059604645 37 31 23
0.19999998807907104 -1.4700000286102295 0.36250001192092896 42 31 25
0.22499999403953552 -1.5 0.36250001192092896 42 31 25
0.22499999403953552 -1.440000057220459 0.36250001192092896 42 31 25
0.19999998807907104 -1.4700000286102295 0.38749998807907104 41 23 22
0.22499999403953552 -1.5 0.38749998807907104 41 23 22
0.22499999403953552 -1.440000057220459 0.38749998807907104 41 23 22
0.19999998807907104 -1.4700000286102295 0.4124999940395355 31 16 14
0.22499999403953552 -1.440000057220459 0.4124999940395355 31 16 14
0.19999998807907104 -1.4700000286102295 0.4375 24 7 11
0.19999998807907104 -1.4700000286102295 0.4625000059604645 19 8 0
0.22499999403953552 -1.5 0.5874999761581421 40 9 8
0.22499999403953552 -1.5 0.612500011920929 46 9 6
0.22499999403953552 -1.5 0.637499988079071 45 10 11
0.19999998807907104 -1.4700000286102295 0.6625000238418579 46 9 11
0.22499999403953552 -1.5 0.6625000238418579 46 9 11
0.19999998807907104 -1.4700000286102295 0.6875 45 10 6
0.22499999403953552 -1.5 0.6875 45 10 6
0.19999998807907104 -1.4700000286102295 0.7124999761581421 46 9 8
0.22499999403953552 -1.5 0.7124999761581421 46 9 8
0.19999998807907104 -1.4700000286102295 0.737500011920929 45 9 10
0.22499999403953552 -1.5 0.737500011920929 45 9 10
0.19999998807907104 -1.4700000286102295 0.762499988079071 53 9 9
0.22499999403953552 -1.5 0.762499988079071 53 9 9
0.19999998807907104 -1.4700000286102295 0.7875000238418579 45 9 7
0.22499999403953552 -1.5 0.7875000238418579 45 9 7
0.19999998807907104 -1.4700000286102295 0.8125 44 9 10
0.22499999403953552 -1.5 0.8125 44 9 10
0.19999998807907104 -1.4700000286102295 0.8374999761581421 42 10 9
0.22499999403953552 -1.5 0.8374999761581421 42 10 9
0.19999998807907104 -1.4700000286102295 0.862500011920929 44 9 9
0.22499999403953552 -1.5 0.862500011920929 44 9 9
0.19999998807907104 -1.4700000286102295 0.887499988079071 37 9 9
0.22499999403953552 -1.5 0.887499988079071 37 9 9
0.19999998807907104 -1.4700000286102295 0.9125000238418579 33 8 11
0.22499999403953552 -1.5 0.9125000238418579 33 8 11
0.19999998807907104 -1.4700000286102295 0.9375 29 7 12
0.22499999403953552 -1.5 0.9375 29 7 12
0.19999998807907104 -1.4700000286102295 0.9624999761581421 33 10 11
0.22499999403953552 -1.5 0.9624999761581421 33 10 11
0.19999998807907104 -1.4700000286102295 0.987500011920929 42 8 14
0.22499999403953552 -1.5 0.987500011920929 42 8 14
0.19999998807907104 -1.4700000286102295 1.0125000476837158 45 7 12
0.22499999403953552 -1.5 1.0125000476837158 45 7 12
0.19999998807907104 -1.4700000286102295 1.037500023841858 255 255 255
0.22499999403953552 -1.5 1.037500023841858 255 255 255
0.22499999403953552 -1.5 1.0625 255 255 255
0.22499999403953552 -1.5 1.162500023841858 255 255 255
0.22499999403953552 -1.5 1.1875 255 255 255
0.22499999403953552 -1.5 1.212499976158142 50 9 8
0.22499999403953552 -1.5 1.2374999523162842 104 18 12
0.22499999403953552 -1.5 1.2625000476837158 142 80 74
0.19999998807907104 -1.4700000286102295 1.287500023841858 149 73 45
0.22499999403953552 -1.5 1.287500023841858 149 73 45
0.19999998807907104 -1.4700000286102295 1.3125 133 39 30
0.22499999403953552 -1.5 1.3125 133 39 30
0.22499999403953552 -1.4700000286102295 1.3250000476837158 133 39 30
0.19999998807907104 -1.409999966621399 0.4375 28 10 17
0.22499999403953552 -1.3799999952316284 0.4375 28 10 17
0.22499999403953552 -1.409999966621399 0.42500001192092896 28 10 17
0.19999998807907104 -1.409999966621399 0.4625000059604645 23 9 9
0.22499999403953552 -1.3799999952316284 0.4625000059604645 23 9 9
0.19999998807907104 -1.409999966621399 0.48750001192092896 19 7 11
0.22499999403953552 -1.3799999952316284 0.48750001192092896 19 7 11
0.19999998807907104 -1.409999966621399 0.512499988079071 23 8 11
0.22499999403953552 -1.3799999952316284 0.512499988079071 23 8 11
0.19999998807907104 -1.409999966621399 0.5375000238418579 20 9 11
0.22499999403953552 -1.3799999952316284 0.5375000238418579 20 9 11
0.19999998807907104 -1.409999966621399 0.5625 29 9 15
0.22499999403953552 -1.3799999952316284 0.5625 29 9 15
0.19999998807907104 -1.409999966621399 0.5874999761581421 20 7 12
0.22499999403953552 -1.3799999952316284 0.5874999761581421 20 7 12
0.19999998807907104 -1.409999966621399 1.337499976158142 219 139 119
0.22499999403953552 -1.440000057220459 1.337499976158142 219 139 119
0.22499999403953552 -1.409999966621399 1.3499999046325684 219 139 119
0.19999998807907104 -1.350000023841858 0.612500011920929 26 8 9
0.22499999403953552 -1.3199999332427979 0.612500011920929 26 8 9
0.22499999403953552 -1.350000023841858 0.6000000238418579 26 8 9
0.19999998807907104 -1.350000023841858 0.637499988079071 35 11 15
0.22499999403953552 -1.3199999332427979 0.637499988079071 35 11 15
0.19999998807907104 -1.350000023841858 0.6625000238418579 26 8 12
0.22499999403953552 -1.3199999332427979 0.6625000238418579 26 8 12
0.19999998807907104 -1.350000023841858 0.6875 25 7 16
0.22499999403953552 -1.3199999332427979 0.6875 25 7 16
0.19999998807907104 -1.350000023841858 0.9624999761581421 41 10 14
0.22499999403953552 -1.3199999332427979 0.9624999761581421 41 10 14
0.19999998807907104 -1.350000023841858 0.987500011920929 39 9 12
0.22499999403953552 -1.3199999332427979 0.987500011920929 39 9 12
0.19999998807907104 -1.350000023841858 1.0125000476837158 36 9 15
0.22499999403953552 -1.3199999332427979 1.0125000476837158 36 9 15
0.19999998807907104 -1.350000023841858 1.037500023841858 30 10 14
0.22499999403953552 -1.3199999332427979 1.037500023841858 30 10 14
0.19999998807907104 -1.350000023841858 1.0625 25 8 16
0.22499999403953552 -1.3199999332427979 1.0625 25 8 16
0.19999998807907104 -1.350000023841858 1.087499976158142 23 10 15
0.22499999403953552 -1.3199999332427979 1.087499976158142 23 10 15
0.19999998807907104 -1.350000023841858 1.3624999523162842 180 110 76
0.22499999403953552 -1.3799999952316284 1.3624999523162842 180 110 76
0.19999998807907104 -1.350000023841858 1.3875000476837158 97 56 39
0.22499999403953552 -1.3799999952316284 1.3875000476837158 97 56 39
0.19999998807907104 -1.350000023841858 1.412500023841858 189 113 91
0.22499999403953552 -1.3799999952316284 1.412500023841858 189 113 91
0.19999998807907104 -1.350000023841858 1.4375 171 105 76
0.22499999403953552 -1.3799999952316284 1.4375 171 105 76
0.19999998807907104 -1.350000023841858 1.462499976158142 89 64 48
0.25 -1.350000023841858 1.462499976158142 89 64 48
0.22499999403953552 -1.3799999952316284 1.462499976158142 89 64 48
0.19999998807907104 -1.350000023841858 1.4874999523162842 102 21 33
0.25 -1.350000023841858 1.4874999523162842 102 21 33
0.22499999403953552 -1.3799999952316284 1.4874999523162842 102 21 33
0.25 -1.350000023841858 1.5125000476837158 96 38 29
0.22499999403953552 -1.3799999952316284 1.5125000476837158 96 38 29
0.19999998807907104 -1.350000023841858 1.537500023841858 107 65 52
0.25 -1.350000023841858 1.537500023841858 107 65 52
0.22499999403953552 -1.3799999952316284 1.537500023841858 107 65 52
0.19999998807907104 -1.350000023841858 1.5625 189 68 38
0.25 -1.350000023841858 1.5625 189 68 38
0.22499999403953552 -1.3799999952316284 1.5625 189 68 38
0.19999998807907104 -1.350000023841858 1.587499976158142 87 29 25
0.25 -1.350000023841858 1.587499976158142 87 29 25
0.22499999403953552 -1.3799999952316284 1.587499976158142 87 29 25
0.22499999403953552 -1.350000023841858 1.5999999046325684 87 29 25
0.19999998807907104 -1.2899999618530273 0.7124999761581421 45 39 31
0.22499999403953552 -1.2599999904632568 0.7124999761581421 45 39 31
0.22499999403953552 -1.2899999618530273 0.699999988079071 45 39 31
0.19999998807907104 -1.2899999618530273 0.737500011920929 33 10 14
0.22499999403953552 -1.2599999904632568 0.737500011920929 33 10 14
0.19999998807907104 -1.2899999618530273 0.762499988079071 33 11 14
0.22499999403953552 -1.2599999904632568 0.762499988079071 33 11 14
0.19999998807907104 -1.2899999618530273 0.7875000238418579 36 10 18
0.22499999403953552 -1.2599999904632568 0.7875000238418579 36 10 18
0.19999998807907104 -1.2899999618530273 0.8125 35 11 14
0.22499999403953552 -1.2599999904632568 0.8125 35 11 14
0.19999998807907104 -1.2899999618530273 0.8374999761581421 38 10 14
0.22499999403953552 -1.2599999904632568 0.8374999761581421 38 10 14
0.19999998807907104 -1.2899999618530273 0.862500011920929 43 12 13
0.22499999403953552 -1.2599999904632568 0.862500011920929 43 12 13
0.19999998807907104 -1.2899999618530273 0.887499988079071 51 10 13
0.22499999403953552 -1.2599999904632568 0.887499988079071 51 10 13
0.19999998807907104 -1.2899999618530273 0.9125000238418579 51 10 16
0.22499999403953552 -1.2599999904632568 0.9125000238418579 51 10 16
0.19999998807907104 -1.2899999618530273 0.9375 64 13 17
0.22499999403953552 -1.2599999904632568 0.9375 64 13 17
0.22499999403953552 -1.2899999618530273 0.949999988079071 64 13 17
0.19999998807907104 -1.2899999618530273 1.1124999523162842 23 10 16
0.22499999403953552 -1.2599999904632568 1.1124999523162842 23 10 16
0.22499999403953552 -1.2899999618530273 1.0999999046325684 23 10 16
0.19999998807907104 -1.2899999618530273 1.1375000476837158 27 9 16
0.22499999403953552 -1.2599999904632568 1.1375000476837158 27 9 16
0.22499999403953552 -1.2599999904632568 1.162500023841858 26 9 14
0.22499999403953552 -1.2599999904632568 1.1875 30 10 17
0.25 -1.2899999618530273 1.587499976158142 37 25 20
0.25 -1.2899999618530273 1.6124999523162842 71 64 36
0.22499999403953552 -1.3199999332427979 1.6124999523162842 71 64 36
0.22499999403953552 -1.2899999618530273 1.625 71 64 36
0.25 -1.2300000190734863 1.212499976158142 30 12 15
0.22499999403953552 -1.2000000476837158 1.212499976158142 30 12 15
0.22499999403953552 -1.2300000190734863 1.2000000476837158 30 12 15
0.25 -1.2300000190734863 1.2374999523162842 41 12 15
0.22499999403953552 -1.2000000476837158 1.2374999523162842 41 12 15
0.22499999403953552 -1.2000000476837158 1.2625000476837158 48 15 25
0.22499999403953552 -1.2000000476837158 1.287500023841858 50 15 18
0.22499999403953552 -1.2000000476837158 1.3125 51 12 16
0.22499999403953552 -1.2000000476837158 1.337499976158142 52 14 18
0.19999998807907104 -1.2300000190734863 1.3624999523162842 38 13 18
0.22499999403953552 -1.2000000476837158 1.3624999523162842 38 13 18
0.19999998807907104 -1.2300000190734863 1.3875000476837158 40 27 20
0.22499999403953552 -1.2000000476837158 1.3875000476837158 40 27 20
0.19999998807907104 -1.2300000190734863 1.412500023841858 55 32 25
0.22499999403953552 -1.2000000476837158 1.412500023841858 55 32 25
0.22499999403953552 -1.2000000476837158 1.4375 35 18 22
0.25 -1.2300000190734863 1.462499976158142 17 12 12
0.22499999403953552 -1.2000000476837158 1.462499976158142 17 12 12
0.25 -1.2300000190734863 1.4874999523162842 14 11 16
0.22499999403953552 -1.2000000476837158 1.6124999523162842 48 32 27
0.25 -1.2300000190734863 1.6375000476837158 66 44 31
0.22499999403953552 -1.2599999904632568 1.6375000476837158 66 44 31
0.22499999403953552 -1.2000000476837158 1.6375000476837158 66 44 31
0.22499999403953552 -1.2300000190734863 1.6500000953674316 66 44 31
0.25 -1.1699999570846558 1.4874999523162842 22 13 16
0.22499999403953552 -1.1399999856948853 1.4874999523162842 22 13 16
0.22499999403953552 -1.1699999570846558 1.4749999046325684 22 13 16
0.22499999403953552 -1.1399999856948853 1.5125000476837158 17 16 16
0.22499999403953552 -1.1399999856948853 1.537500023841858 21 16 17
0.22499999403953552 -1.1399999856948853 1.5625 30 17 21
0.22499999403953552 -1.1399999856948853 1.587499976158142 35 22 20
0.22499999403953552 -1.1699999570846558 1.5999999046325684 35 22 20
0.30000001192092896 -1.590000033378601 0.012500000186264515 43 51 41
0.2750000059604645 -1.6200000047683716 0.012500000186264515 43 51 41
0.2750000059604645 -1.559999942779541 0.012500000186264515 43 51 41
0.2749999761581421 -1.590000033378601 4.656612873077393e-10 43 51 41
0.30000001192092896 -1.590000033378601 0.03750000149011612 39 34 29
0.2750000059604645 -1.6200000047683716 0.03750000149011612 39 34 29
0.2750000059604645 -1.559999942779541 0.03750000149011612 39 34 29
0.30000001192092896 -1.590000033378601 0.0625 48 39 33
0.2750000059604645 -1.6200000047683716 0.0625 48 39 33
0.2750000059604645 -1.559999942779541 0.0625 48 39 33
0.30000001192092896 -1.590000033378601 0.08749999850988388 97 64 46
0.2750000059604645 -1.6200000047683716 0.08749999850988388 97 64 46
0.2750000059604645 -1.559999942779541 0.08749999850988388 97 64 46
0.30000001192092896 -1.590000033378601 0.11249999701976776 91 69 44
0.2750000059604645 -1.6200000047683716 0.11249999701976776 91 69 44
0.2750000059604645 -1.559999942779541 0.11249999701976776 91 69 44
0.25 -1.590000033378601 0.13750000298023224 85 66 45
0.30000001192092896 -1.590000033378601 0.13750000298023224 85 66 45
0.2750000059604645 -1.6200000047683716 0.13750000298023224 85 66 45
0.2750000059604645 -1.559999942779541 0.13750000298023224 85 66 45
0.25 -1.590000033378601 0.16249999403953552 66 70 58
0.30000001192092896 -1.590000033378601 0.16249999403953552 66 70 58
0.2750000059604645 -1.6200000047683716 0.16249999403953552 66 70 58
0.2750000059604645 -1.590000033378601 0.17499999701976776 66 70 58
0.25 -1.5299999713897705 0.16249999403953552 45 38 36
0.30000001192092896 -1.5299999713897705 0.16249999403953552 45 38 36
0.2750000059604645 -1.5 0.16249999403953552 45 38 36
0.2750000059604645 -1.5299999713897705 0.15000000596046448 45 38 36
0.25 -1.5299999713897705 0.1875 52 38 38
0.30000001192092896 -1.5299999713897705 0.1875 52 38 38
0.2750000059604645 -1.559999942779541 0.1875 52 38 38
0.2750000059604645 -1.5 0.1875 52 38 38
0.30000001192092896 -1.5299999713897705 0.21250000596046448 58 42 36
0.2750000059604645 -1.559999942779541 0.21250000596046448 58 42 36
0.2750000059604645 -1.5 0.21250000596046448 58 42 36
0.30000001192092896 -1.5299999713897705 0.23749999701976776 59 43 34
0.2750000059604645 -1.559999942779541 0.23749999701976776 59 43 34
0.2750000059604645 -1.5 0.23749999701976776 59 43 34
0.30000001192092896 -1.5299999713897705 0.26249998807907104 52 36 32
0.2750000059604645 -1.559999942779541 0.26249998807907104 52 36 32
0.30000001192092896 -1.5299999713897705 0.2874999940395355 75 51 38
0.2750000059604645 -1.559999942779541 0.2874999940395355 75 51 38
0.2750000059604645 -1.559999942779541 0.3125 77 53 42
0.25 -1.5299999713897705 0.3375000059604645 85 60 48
0.30000001192092896 -1.5299999713897705 0.3375000059604645 85 60 48
0.2750000059604645 -1.559999942779541 0.3375000059604645 85 60 48
0.25 -1.5299999713897705 0.36250001192092896 91 65 46
0.30000001192092896 -1.5299999713897705 0.36250001192092896 91 65 46
0.2750000059604645 -1.559999942779541 0.36250001192092896 91 65 46
0.25 -1.5299999713897705 0.38749998807907104 79 82 64
0.30000001192092896 -1.5299999713897705 0.38749998807907104 79 82 64
0.2750000059604645 -1.559999942779541 0.38749998807907104 79 82 64
0.30000001192092896 -1.5299999713897705 0.4124999940395355 69 85 65
0.2750000059604645 -1.559999942779541 0.4124999940395355 69 85 65
0.2750000059604645 -1.559999942779541 0.4375 63 20 31
0.2750000059604645 -1.559999942779541 0.4625000059604645 57 15 14
0.2750000059604645 -1.559999942779541 0.48750001192092896 47 17 11
0.2750000059604645 -1.559999942779541 0.512499988079071 53 14 10
0.30000001192092896 -1.5299999713897705 0.5375000238418579 64 14 17
0.2750000059604645 -1.559999942779541 0.5375000238418579 64 14 17
0.30000001192092896 -1.5299999713897705 0.5625 63 14 15
0.2750000059604645 -1.559999942779541 0.5625 63 14 15
0.25 -1.5299999713897705 0.5874999761581421 62 31 15
0.30000001192092896 -1.5299999713897705 0.5874999761581421 62 31 15
0.2750000059604645 -1.559999942779541 0.5874999761581421 62 31 15
0.2750000059604645 -1.5299999713897705 0.6000000238418579 62 31 15
0.25 -1.5299999713897705 0.862500011920929 42 36 35
0.30000001192092896 -1.5299999713897705 0.862500011920929 42 36 35
0.2750000059604645 -1.559999942779541 0.862500011920929 42 36 35
0.2750000059604645 -1.5299999713897705 0.8500000238418579 42 36 35
0.25 -1.5299999713897705 0.887499988079071 41 15 11
0.30000001192092896 -1.5299999713897705 0.887499988079071 41 15 11
0.2750000059604645 -1.559999942779541 0.887499988079071 41 15 11
0.25 -1.5299999713897705 0.9125000238418579 41 14 23
0.2750000059604645 -1.559999942779541 0.9125000238418579 41 14 23
0.25 -1.5299999713897705 0.9375 40 13 15
0.2750000059604645 -1.559999942779541 0.9375 40 13 15
0.25 -1.5299999713897705 0.9624999761581421 41 11 11
0.2750000059604645 -1.559999942779541 0.9624999761581421 41 11 11
0.25 -1.5299999713897705 0.987500011920929 40 13 11
0.2750000059604645 -1.559999942779541 0.987500011920929 40 13 11
0.25 -1.5299999713897705 1.0125000476837158 49 12 11
0.2750000059604645 -1.559999942779541 1.0125000476837158 49 12 11
0.25 -1.5299999713897705 1.037500023841858 48 13 10
0.2750000059604645 -1.559999942779541 1.037500023841858 48 13 10
0.25 -1.5299999713897705 1.0625 58 15 13
0.2750000059604645 -1.559999942779541 1.0625 58 15 13
0.2750000059604645 -1.559999942779541 1.087499976158142 42 8 10
0.2750000059604645 -1.559999942779541 1.1124999523162842 44 13 11
0.2750000059604645 -1.559999942779541 1.1375000476837158 71 15 14
0.25 -1.5299999713897705 1.162500023841858 68 9 10
0.2750000059604645 -1.559999942779541 1.162500023841858 68 9 10
0.25 -1.5299999713897705 1.1875 49 13 10
0.2750000059604645 -1.559999942779541 1.1875 49 13 10
0.25 -1.5299999713897705 1.212499976158142 56 16 8
0.2750000059604645 -1.559999942779541 1.212499976158142 56 16 8
0.25 -1.5299999713897705 1.2374999523162842 51 25 9
0.2750000059604645 -1.559999942779541 1.2374999523162842 51 25 9
0.25 -1.5299999713897705 1.2625000476837158 85 28 17
0.30000001192092896 -1.5299999713897705 1.2625000476837158 85 28 17
0.2750000059604645 -1.559999942779541 1.2625000476837158 85 28 17
0.25 -1.5299999713897705 1.287500023841858 78 84 70
0.30000001192092896 -1.5299999713897705 1.287500023841858 78 84 70
0.2750000059604645 -1.559999942779541 1.287500023841858 78 84 70
0.2750000059604645 -1.5299999713897705 1.2999999523162842 78 84 70
0.25 -1.4700000286102295 0.26249998807907104 36 30 25
0.30000001192092896 -1.4700000286102295 0.26249998807907104 36 30 25
0.2750000059604645 -1.440000057220459 0.26249998807907104 36 30 25
0.2750000059604645 -1.4700000286102295 0.25 36 30 25
0.25 -1.4700000286102295 0.2874999940395355 36 28 28
0.30000001192092896 -1.4700000286102295 0.2874999940395355 36 28 28
0.2750000059604645 -1.440000057220459 0.2874999940395355 36 28 28
0.30000001192092896 -1.4700000286102295 0.3125 43 34 29
0.2750000059604645 -1.440000057220459 0.3125 43 34 29
0.30000001192092896 -1.4700000286102295 0.3375000059604645 33 25 19
0.2750000059604645 -1.440000057220459 0.3375000059604645 33 25 19
0.30000001192092896 -1.4700000286102295 0.36250001192092896 30 21 19
0.2750000059604645 -1.440000057220459 0.36250001192092896 30 21 19
0.30000001192092896 -1.4700000286102295 0.4375 255 255 255
0.30000001192092896 -1.4700000286102295 0.4625000059604645 255 255 255
0.2750000059604645 -1.5 0.612500011920929 255 255 255
0.2750000059604645 -1.5 0.637499988079071 255 255 255
0.2750000059604645 -1.5 0.6625000238418579 255 255 255
0.2750000059604645 -1.5 0.6875 255 255 255
0.2750000059604645 -1.5 0.7124999761581421 255 255 255
0.2750000059604645 -1.5 0.737500011920929 255 255 255
0.2750000059604645 -1.5 0.762499988079071 255 255 255
0.2750000059604645 -1.5 0.7875000238418579 255 255 255
0.2750000059604645 -1.5 0.8125 43 13 9
0.2750000059604645 -1.5 0.8374999761581421 47 17 7
0.2750000059604645 -1.5 1.3125 77 11 15
0.25 -1.4700000286102295 1.337499976158142 110 23 15
0.2750000059604645 -1.5 1.337499976158142 110 23 15
0.2750000059604645 -1.4700000286102295 1.3499999046325684 110 23 15
0.25 -1.409999966621399 0.38749998807907104 31 26 21
0.30000001192092896 -1.409999966621399 0.38749998807907104 31 26 21
0.2750000059604645 -1.3799999952316284 0.38749998807907104 31 26 21
0.2750000059604645 -1.409999966621399 0.375 31 26 21
0.25 -1.409999966621399 0.4124999940395355 36 26 16
0.30000001192092896 -1.409999966621399 0.4124999940395355 36 26 16
0.2750000059604645 -1.3799999952316284 0.4124999940395355 36 26 16
0.30000001192092896 -1.409999966621399 0.4375 25 10 13
0.30000001192092896 -1.409999966621399 0.4625000059604645 255 255 255
0.25 -1.409999966621399 1.3624999523162842 151 30 22
0.2750000059604645 -1.440000057220459 1.3624999523162842 151 30 22
0.25 -1.409999966621399 1.3875000476837158 108 18 17
0.2750000059604645 -1.440000057220459 1.3875000476837158 108 18 17
0.2750000059604645 -1.409999966621399 1.4000000953674316 108 18 17
0.25 -1.350000023841858 0.4375 34 11 13
0.2750000059604645 -1.3199999332427979 0.4375 34 11 13
0.2750000059604645 -1.350000023841858 0.42500001192092896 34 11 13
0.25 -1.350000023841858 0.4625000059604645 32 9 12
0.2750000059604645 -1.3199999332427979 0.4625000059604645 32 9 12
0.25 -1.350000023841858 0.48750001192092896 35 9 13
0.25 -1.350000023841858 0.512499988079071 24 8 12
0.25 -1.350000023841858 0.5375000238418579 35 11 14
0.2750000059604645 -1.3199999332427979 0.5375000238418579 35 11 14
0.25 -1.350000023841858 0.5625 35 10 16
0.2750000059604645 -1.3199999332427979 0.5625 35 10 16
0.25 -1.350000023841858 0.5874999761581421 30 10 9
0.2750000059604645 -1.3199999332427979 0.612500011920929 26 9 11
0.2750000059604645 -1.3199999332427979 0.987500011920929 46 11 14
0.2750000059604645 -1.3199999332427979 1.0125000476837158 35 11 16
0.2750000059604645 -1.3199999332427979 1.037500023841858 29 9 14
0.2750000059604645 -1.3199999332427979 1.0625 33 9 16
0.2750000059604645 -1.3199999332427979 1.087499976158142 32 10 14
0.2750000059604645 -1.3799999952316284 1.412500023841858 77 14 16
0.2750000059604645 -1.3799999952316284 1.4375 155 133 101
0.2750000059604645 -1.350000023841858 1.4500000476837158 155 133 101
0.25 -1.2899999618530273 0.48750001192092896 55 9 10
0.2750000059604645 -1.2599999904632568 0.48750001192092896 55 9 10
0.2750000059604645 -1.2899999618530273 0.4750000238418579 55 9 10
0.25 -1.2899999618530273 0.512499988079071 46 15 23
0.2750000059604645 -1.2599999904632568 0.512499988079071 46 15 23
0.2750000059604645 -1.2899999618530273 0.5249999761581421 46 15 23
0.25 -1.2899999618530273 0.5874999761581421 68 16 17
0.2750000059604645 -1.2599999904632568 0.5874999761581421 68 16 17
0.2750000059604645 -1.2899999618530273 0.574999988079071 68 16 17
0.2750000059604645 -1.2899999618530273 0.6000000238418579 68 16 17
0.25 -1.2899999618530273 0.637499988079071 44 16 18
0.2750000059604645 -1.2599999904632568 0.637499988079071 44 16 18
0.2750000059604645 -1.2899999618530273 0.625 44 16 18
0.25 -1.2899999618530273 0.6625000238418579 29 11 17
0.2750000059604645 -1.2599999904632568 0.6625000238418579 29 11 17
0.25 -1.2899999618530273 0.6875 28 9 15
0.2750000059604645 -1.2599999904632568 0.6875 28 9 15
0.2750000059604645 -1.2599999904632568 0.7124999761581421 30 10 15
0.2750000059604645 -1.2599999904632568 0.737500011920929 32 9 15
0.2750000059604645 -1.2599999904632568 0.762499988079071 31 12 16
0.2750000059604645 -1.2599999904632568 0.7875000238418579 31 10 13
0.2750000059604645 -1.2599999904632568 0.8125 38 12 16
0.2750000059604645 -1.2599999904632568 0.8374999761581421 42 13 18
0.2750000059604645 -1.2599999904632568 0.862500011920929 47 13 17
0.2750000059604645 -1.2599999904632568 0.887499988079071 56 14 16
0.2750000059604645 -1.2599999904632568 0.9125000238418579 59 14 19
0.2750000059604645 -1.2599999904632568 0.9375 58 12 15
0.25 -1.2899999618530273 0.9624999761581421 50 12 15
0.2750000059604645 -1.2599999904632568 0.9624999761581421 50 12 15
0.2750000059604645 -1.2899999618530273 0.9750000238418579 50 12 15
0.30000001192092896 -1.2899999618530273 1.1124999523162842 28 11 16
0.2750000059604645 -1.2599999904632568 1.1124999523162842 28 11 16
0.2750000059604645 -1.2899999618530273 1.0999999046325684 28 11 16
0.30000001192092896 -1.2899999618530273 1.1375000476837158 32 10 14
0.2750000059604645 -1.2599999904632568 1.1375000476837158 32 10 14
0.2750000059604645 -1.2599999904632568 1.162500023841858 31 9 18
0.2750000059604645 -1.2599999904632568 1.1875 34 11 16
0.2750000059604645 -1.2599999904632568 1.212499976158142 36 11 17
0.2750000059604645 -1.2599999904632568 1.2374999523162842 44 14 13
0.30000001192092896 -1.2899999618530273 1.462499976158142 142 106 77
0.2750000059604645 -1.3199999332427979 1.462499976158142 142 106 77
0.2750000059604645 -1.2599999904632568 1.462499976158142 142 106 77
0.30000001192092896 -1.2899999618530273 1.4874999523162842 88 55 44
0.2750000059604645 -1.3199999332427979 1.4874999523162842 88 55 44
0.2750000059604645 -1.2599999904632568 1.4874999523162842 88 55 44
0.30000001192092896 -1.2899999618530273 1.5125000476837158 29 19 24
0.2750000059604645 -1.3199999332427979 1.5125000476837158 29 19 24
0.30000001192092896 -1.2899999618530273 1.537500023841858 26 18 17
0.2750000059604645 -1.3199999332427979 1.537500023841858 26 18 17
0.30000001192092896 -1.2899999618530273 1.5625 23 21 23
0.2750000059604645 -1.3199999332427979 1.5625 23 21 23
0.2750000059604645 -1.2899999618530273 1.5750000476837158 23 21 23
0.30000001192092896 -1.2300000190734863 1.2625000476837158 48 14 16
0.2750000059604645 -1.2000000476837158 1.2625000476837158 48 14 16
0.2750000059604645 -1.2300000190734863 1.25 48 14 16
0.30000001192092896 -1.2300000190734863 1.287500023841858 50 15 17
0.2750000059604645 -1.2000000476837158 1.287500023841858 50 15 17
0.2750000059604645 -1.2000000476837158 1.3125 48 15 17
0.2750000059604645 -1.2000000476837158 1.337499976158142 49 14 16
0.2750000059604645 -1.2000000476837158 1.3624999523162842 47 13 16
0.2750000059604645 -1.2000000476837158 1.3875000476837158 38 12 16
0.2750000059604645 -1.2000000476837158 1.412500023841858 46 16 20
0.30000001192092896 -1.2300000190734863 1.4375 51 20 18
0.2750000059604645 -1.2000000476837158 1.4375 51 20 18
0.2750000059604645 -1.2300000190734863 1.4500000476837158 51 20 18
0.30000001192092896 -1.2300000190734863 1.5125000476837158 29 18 17
0.2750000059604645 -1.2300000190734863 1.5 29 18 17
0.2750000059604645 -1.2599999904632568 1.587499976158142 31 23 24
0.30000001192092896 -1.2300000190734863 1.6124999523162842 34 29 26
0.2750000059604645 -1.2599999904632568 1.6124999523162842 34 29 26
0.2750000059604645 -1.2300000190734863 1.625 34 29 26
0.30000001192092896 -1.1699999570846558 1.5125000476837158 49 29 19
0.2750000059604645 -1.1399999856948853 1.5125000476837158 49 29 19
0.2750000059604645 -1.1699999570846558 1.5 49 29 19
0.30000001192092896 -1.1699999570846558 1.537500023841858 19 13 17
0.2750000059604645 -1.1399999856948853 1.537500023841858 19 13 17
0.30000001192092896 -1.1699999570846558 1.5625 29 20 21
0.2750000059604645 -1.1399999856948853 1.5625 29 20 21
0.2750000059604645 -1.1399999856948853 1.587499976158142 34 23 24
0.25 -1.1699999570846558 1.6124999523162842 30 21 21
0.30000001192092896 -1.1699999570846558 1.6124999523162842 30 21 21
0.2750000059604645 -1.1399999856948853 1.6124999523162842 30 21 21
0.2750000059604645 -1.1699999570846558 1.625 30 21 21
0.3499999940395355 -1.5299999713897705 0.3125 68 55 42
0.32499998807907104 -1.559999942779541 0.3125 68 55 42
0.32499998807907104 -1.5 0.3125 68 55 42
0.32499998807907104 -1.5299999713897705 0.30000001192092896 68 55 42
0.32499998807907104 -1.5299999713897705 0.32499998807907104 68 55 42
0.3499999940395355 -1.5299999713897705 0.4375 74 55 45
0.32499998807907104 -1.559999942779541 0.4375 74 55 45
0.32499998807907104 -1.5 0.4375 74 55 45
0.32499998807907104 -1.5299999713897705 0.42500001192092896 74 55 45
0.3499999940395355 -1.5299999713897705 0.4625000059604645 65 61 41
0.32499998807907104 -1.559999942779541 0.4625000059604645 65 61 41
0.32499998807907104 -1.5 0.4625000059604645 65 61 41
0.3499999940395355 -1.5299999713897705 0.48750001192092896 47 16 17
0.32499998807907104 -1.559999942779541 0.48750001192092896 47 16 17
0.3499999940395355 -1.5299999713897705 0.512499988079071 45 15 12
0.32499998807907104 -1.559999942779541 0.512499988079071 45 15 12
0.32499998807907104 -1.5299999713897705 0.5249999761581421 45 15 12
0.32499998807907104 -1.559999942779541 0.9125000238418579 58 27 26
0.32499998807907104 -1.5299999713897705 0.8999999761581421 58 27 26
0.32499998807907104 -1.559999942779541 0.9375 58 13 15
0.32499998807907104 -1.559999942779541 0.9624999761581421 50 13 12
0.32499998807907104 -1.559999942779541 0.987500011920929 49 12 14
0.32499998807907104 -1.559999942779541 1.0125000476837158 45 11 9
0.32499998807907104 -1.559999942779541 1.037500023841858 42 9 13
0.32499998807907104 -1.559999942779541 1.0625 34 13 14
0.32499998807907104 -1.559999942779541 1.087499976158142 57 14 9
0.3499999940395355 -1.5299999713897705 1.1124999523162842 60 14 14
0.32499998807907104 -1.559999942779541 1.1124999523162842 60 14 14
0.32499998807907104 -1.559999942779541 1.1375000476837158 56 14 9
0.3499999940395355 -1.5299999713897705 1.162500023841858 66 17 20
0.32499998807907104 -1.559999942779541 1.162500023841858 66 17 20
0.3499999940395355 -1.5299999713897705 1.1875 63 14 13
0.32499998807907104 -1.559999942779541 1.1875 63 14 13
0.3499999940395355 -1.5299999713897705 1.212499976158142 66 11 10
0.32499998807907104 -1.559999942779541 1.212499976158142 66 11 10
0.3499999940395355 -1.5299999713897705 1.2374999523162842 55 11 15
0.32499998807907104 -1.559999942779541 1.2374999523162842 55 11 15
0.32499998807907104 -1.5299999713897705 1.25 55 11 15
0.3499999940395355 -1.4700000286102295 0.38749998807907104 56 39 35
0.32499998807907104 -1.5 0.38749998807907104 56 39 35
0.32499998807907104 -1.440000057220459 0.38749998807907104 56 39 35
0.32499998807907104 -1.4700000286102295 0.375 56 39 35
0.3499999940395355 -1.4700000286102295 0.4124999940395355 68 88 35
0.32499998807907104 -1.5 0.4124999940395355 68 88 35
0.32499998807907104 -1.440000057220459 0.4124999940395355 68 88 35
0.32499998807907104 -1.4700000286102295 0.42500001192092896 68 88 35
0.3499999940395355 -1.4700000286102295 0.48750001192092896 255 255 255
0.32499998807907104 -1.4700000286102295 0.4750000238418579 255 255 255
0.3499999940395355 -1.4700000286102295 0.512499988079071 255 255 255
0.32499998807907104 -1.5 0.5375000238418579 255 255 255
0.32499998807907104 -1.5 0.5625 255 255 255
0.32499998807907104 -1.5 0.5874999761581421 255 255 255
0.32499998807907104 -1.5 0.612500011920929 255 255 255
0.32499998807907104 -1.5 0.637499988079071 255 255 255
0.32499998807907104 -1.5 0.6625000238418579 255 255 255
0.32499998807907104 -1.5 0.6875 255 255 255
0.32499998807907104 -1.5 0.7124999761581421 255 255 255
0.32499998807907104 -1.5 0.737500011920929 255 255 255
0.32499998807907104 -1.5 0.762499988079071 38 15 13
0.32499998807907104 -1.5 0.7875000238418579 36 13 13
0.32499998807907104 -1.5 0.8125 36 10 15
0.32499998807907104 -1.5 0.8374999761581421 255 255 255
0.32499998807907104 -1.5 0.862500011920929 255 255 255
0.32499998807907104 -1.5 0.887499988079071 255 255 255
0.32499998807907104 -1.5 1.2625000476837158 65 20 12
0.32499998807907104 -1.5 1.287500023841858 87 22 18
0.32499998807907104 -1.5 1.3125 74 17 12
0.3499999940395355 -1.4700000286102295 1.337499976158142 78 16 14
0.32499998807907104 -1.5 1.337499976158142 78 16 14
0.30000001192092896 -1.4700000286102295 1.3624999523162842 118 33 20
0.3499999940395355 -1.4700000286102295 1.3624999523162842 118 33 20
0.32499998807907104 -1.5 1.3624999523162842 118 33 20
0.32499998807907104 -1.4700000286102295 1.375 118 33 20
0.32499998807907104 -1.409999966621399 0.4750000238418579 255 255 255
0.32499998807907104 -1.440000057220459 1.3875000476837158 124 21 20
0.30000001192092896 -1.409999966621399 1.412500023841858 93 16 15
0.32499998807907104 -1.440000057220459 1.412500023841858 93 16 15
0.32499998807907104 -1.409999966621399 1.4249999523162842 93 16 15
0.32499998807907104 -1.3799999952316284 0.4375 29 8 10
0.32499998807907104 -1.350000023841858 0.42500001192092896 29 8 10
0.32499998807907104 -1.3799999952316284 0.4625000059604645 14 7 13
0.32499998807907104 -1.3199999332427979 0.987500011920929 48 13 15
0.32499998807907104 -1.3199999332427979 1.0125000476837158 44 13 16
0.32499998807907104 -1.3199999332427979 1.037500023841858 44 13 15
0.32499998807907104 -1.3199999332427979 1.0625 36 12 12
0.32499998807907104 -1.3199999332427979 1.087499976158142 35 12 14
0.32499998807907104 -1.3199999332427979 1.1124999523162842 38 13 14
0.32499998807907104 -1.3199999332427979 1.1375000476837158 37 11 14
0.32499998807907104 -1.3799999952316284 1.4375 126 34 39
0.30000001192092896 -1.350000023841858 1.462499976158142 174 153 101
0.32499998807907104 -1.3799999952316284 1.462499976158142 174 153 101
0.32499998807907104 -1.3199999332427979 1.462499976158142 174 153 101
0.32499998807907104 -1.350000023841858 1.4749999046325684 174 153 101
0.30000001192092896 -1.2899999618530273 0.4375 52 20 35
0.32499998807907104 -1.2599999904632568 0.4375 52 20 35
0.32499998807907104 -1.2899999618530273 0.42500001192092896 52 20 35
0.30000001192092896 -1.2899999618530273 0.4625000059604645 41 12 16
0.32499998807907104 -1.2599999904632568 0.4625000059604645 41 12 16
0.32499998807907104 -1.2599999904632568 0.48750001192092896 44 11 13
0.32499998807907104 -1.2599999904632568 0.512499988079071 37 12 13
0.30000001192092896 -1.2899999618530273 0.5375000238418579 43 12 15
0.32499998807907104 -1.2599999904632568 0.5375000238418579 43 12 15
0.30000001192092896 -1.2899999618530273 0.5625 43 14 16
0.32499998807907104 -1.2599999904632568 0.5625 43 14 16
0.32499998807907104 -1.2599999904632568 0.5874999761581421 42 13 19
0.30000001192092896 -1.2899999618530273 0.612500011920929 35 9 18
0.32499998807907104 -1.2599999904632568 0.612500011920929 35 9 18
0.32499998807907104 -1.2599999904632568 0.637499988079071 34 10 14
0.32499998807907104 -1.2599999904632568 0.6625000238418579 35 10 13
0.32499998807907104 -1.2599999904632568 0.6875 39 10 12
0.32499998807907104 -1.2599999904632568 0.7124999761581421 40 10 16
0.32499998807907104 -1.2599999904632568 0.737500011920929 39 13 16
0.32499998807907104 -1.2599999904632568 0.762499988079071 39 11 12
0.32499998807907104 -1.2599999904632568 0.7875000238418579 36 11 15
0.32499998807907104 -1.2599999904632568 0.8125 37 11 14
0.32499998807907104 -1.2599999904632568 0.8374999761581421 39 12 15
0.32499998807907104 -1.2599999904632568 0.862500011920929 52 13 15
0.32499998807907104 -1.2599999904632568 0.887499988079071 57 14 18
0.32499998807907104 -1.2599999904632568 0.9125000238418579 57 15 17
0.32499998807907104 -1.2599999904632568 0.9375 65 14 20
0.32499998807907104 -1.2599999904632568 0.9624999761581421 64 14 17
0.32499998807907104 -1.2899999618530273 0.9750000238418579 64 14 17
0.3499999940395355 -1.2899999618530273 1.162500023841858 35 10 14
0.32499998807907104 -1.2599999904632568 1.162500023841858 35 10 14
0.32499998807907104 -1.2899999618530273 1.1500000953674316 35 10 14
0.3499999940395355 -1.2899999618530273 1.1875 33 11 14
0.32499998807907104 -1.2599999904632568 1.1875 33 11 14
0.32499998807907104 -1.2599999904632568 1.212499976158142 37 11 16
0.32499998807907104 -1.2599999904632568 1.2374999523162842 40 13 15
0.32499998807907104 -1.2599999904632568 1.2625000476837158 45 14 16
0.32499998807907104 -1.2599999904632568 1.287500023841858 46 15 17
0.32499998807907104 -1.2599999904632568 1.4375 92 20 19
0.32499998807907104 -1.2899999618530273 1.4500000476837158 92 20 19
0.3499999940395355 -1.2300000190734863 1.3125 45 15 20
0.32499998807907104 -1.2000000476837158 1.3125 45 15 20
0.32499998807907104 -1.2300000190734863 1.2999999523162842 45 15 20
0.3499999940395355 -1.2300000190734863 1.337499976158142 46 12 12
0.32499998807907104 -1.2000000476837158 1.337499976158142 46 12 12
0.3499999940395355 -1.2300000190734863 1.3624999523162842 43 13 24
0.32499998807907104 -1.2000000476837158 1.3624999523162842 43 13 24
0.3499999940395355 -1.2300000190734863 1.3875000476837158 52 14 17
0.32499998807907104 -1.2000000476837158 1.3875000476837158 52 14 17
0.3499999940395355 -1.2300000190734863 1.412500023841858 53 13 17
0.32499998807907104 -1.2000000476837158 1.412500023841858 53 13 17
0.32499998807907104 -1.2300000190734863 1.4249999523162842 53 13 17
0.3499999940395355 -1.2300000190734863 1.537500023841858 41 31 28
0.32499998807907104 -1.2599999904632568 1.537500023841858 41 31 28
0.32499998807907104 -1.2000000476837158 1.537500023841858 41 31 28
0.32499998807907104 -1.2300000190734863 1.5250000953674316 41 31 28
0.3499999940395355 -1.2300000190734863 1.5625 35 25 22
0.32499998807907104 -1.2599999904632568 1.5625 35 25 22
0.32499998807907104 -1.2000000476837158 1.5625 35 25 22
0.3499999940395355 -1.2300000190734863 1.587499976158142 49 29 29
0.32499998807907104 -1.2599999904632568 1.587499976158142 49 29 29
0.32499998807907104 -1.2300000190734863 1.5999999046325684 49 29 29
0.3499999940395355 -1.1699999570846558 1.587499976158142 34 22 23
0.32499998807907104 -1.1399999856948853 1.587499976158142 34 22 23
0.32499998807907104 -1.1699999570846558 1.5750000476837158 34 22 23
0.32499998807907104 -1.1699999570846558 1.5999999046325684 34 22 23
0.3499999940395355 -1.5299999713897705 0.887499988079071 50 32 30
0.4000000059604645 -1.5299999713897705 0.887499988079071 50 32 30
0.375 -1.559999942779541 0.887499988079071 50 32 30
0.375 -1.5299999713897705 0.875 50 32 30
0.4000000059604645 -1.5299999713897705 0.9125000238418579 55 33 30
0.375 -1.559999942779541 0.9125000238418579 55 33 30
0.4000000059604645 -1.5299999713897705 0.9375 61 20 17
0.375 -1.559999942779541 0.9375 61 20 17
0.4000000059604645 -1.5299999713897705 0.9624999761581421 53 16 16
0.375 -1.559999942779541 0.9624999761581421 53 16 16
0.4000000059604645 -1.5299999713897705 0.987500011920929 51 14 13
0.375 -1.559999942779541 0.987500011920929 51 14 13
0.4000000059604645 -1.5299999713897705 1.0125000476837158 41 12 14
0.375 -1.559999942779541 1.0125000476837158 41 12 14
0.4000000059604645 -1.5299999713897705 1.037500023841858 51 15 14
0.375 -1.559999942779541 1.037500023841858 51 15 14
0.4000000059604645 -1.5299999713897705 1.0625 52 16 12
0.375 -1.559999942779541 1.0625 52 16 12
0.4000000059604645 -1.5299999713897705 1.087499976158142 39 12 13
0.375 -1.559999942779541 1.087499976158142 39 12 13
0.375 -1.5299999713897705 1.0999999046325684 39 12 13
0.4000000059604645 -1.5299999713897705 1.1375000476837158 52 14 17
0.375 -1.559999942779541 1.1375000476837158 52 14 17
0.375 -1.5299999713897705 1.125 52 14 17
0.375 -1.5299999713897705 1.1500000953674316 52 14 17
0.375 -1.5 0.5375000238418579 46 14 13
0.375 -1.4700000286102295 0.5249999761581421 46 14 13
0.375 -1.5 0.5625 44 15 13
0.375 -1.5 0.5874999761581421 255 255 255
0.375 -1.5 0.612500011920929 255 255 255
0.375 -1.5 0.637499988079071 255 255 255
0.375 -1.5 0.6625000238418579 255 255 255
0.375 -1.5 0.6875 255 255 255
0.375 -1.5 0.7124999761581421 38 10 15
0.375 -1.5 0.737500011920929 37 13 12
0.375 -1.5 0.762499988079071 255 255 255
0.375 -1.5 0.7875000238418579 41 18 12
0.375 -1.5 0.8125 54 15 10
0.375 -1.5 0.8374999761581421 49 18 14
0.375 -1.5 0.862500011920929 46 15 16
0.375 -1.5 1.1124999523162842 56 13 16
0.375 -1.5 1.162500023841858 64 19 12
0.375 -1.5 1.1875 65 18 15
0.4000000059604645 -1.4700000286102295 1.212499976158142 69 20 13
0.375 -1.5 1.212499976158142 69 20 13
0.4000000059604645 -1.4700000286102295 1.2374999523162842 77 33 24
0.375 -1.5 1.2374999523162842 77 33 24
0.4000000059604645 -1.4700000286102295 1.2625000476837158 91 41 33
0.375 -1.5 1.2625000476837158 91 41 33
0.4000000059604645 -1.4700000286102295 1.287500023841858 75 13 18
0.375 -1.5 1.287500023841858 75 13 18
0.4000000059604645 -1.4700000286102295 1.3125 91 14 12
0.375 -1.5 1.3125 91 14 12
0.375 -1.4700000286102295 1.3250000476837158 91 14 12
0.3499999940395355 -1.409999966621399 0.4625000059604645 255 255 255
0.375 -1.440000057220459 0.4625000059604645 255 255 255
0.375 -1.409999966621399 0.44999998807907104 255 255 255
0.375 -1.440000057220459 0.48750001192092896 255 255 255
0.375 -1.440000057220459 0.512499988079071 255 255 255
0.375 -1.440000057220459 1.337499976158142 149 118 71
0.375 -1.440000057220459 1.3624999523162842 122 85 61
0.4000000059604645 -1.409999966621399 1.3875000476837158 115 66 52
0.375 -1.440000057220459 1.3875000476837158 115 66 52
0.4000000059604645 -1.409999966621399 1.412500023841858 126 74 62
0.375 -1.440000057220459 1.412500023841858 126 74 62
0.375 -1.409999966621399 1.4249999523162842 126 74 62
0.375 -1.3799999952316284 0.4375 255 255 255
0.375 -1.350000023841858 0.42500001192092896 255 255 255
0.375 -1.3199999332427979 1.0125000476837158 59 15 15
0.4000000059604645 -1.350000023841858 1.037500023841858 53 15 16
0.375 -1.3199999332427979 1.037500023841858 53 15 16
0.4000000059604645 -1.350000023841858 1.0625 49 12 15
0.375 -1.3199999332427979 1.0625 49 12 15
0.4000000059604645 -1.350000023841858 1.087499976158142 45 13 17
0.375 -1.3199999332427979 1.087499976158142 45 13 17
0.4000000059604645 -1.350000023841858 1.1124999523162842 44 11 13
0.375 -1.3199999332427979 1.1124999523162842 44 11 13
0.4000000059604645 -1.350000023841858 1.1375000476837158 41 11 17
0.375 -1.3199999332427979 1.1375000476837158 41 11 17
0.4000000059604645 -1.350000023841858 1.162500023841858 44 13 13
0.375 -1.3199999332427979 1.162500023841858 44 13 13
0.375 -1.3199999332427979 1.1875 44 11 13
0.375 -1.3799999952316284 1.4375 245 150 110
0.375 -1.3799999952316284 1.462499976158142 252 196 144
0.375 -1.350000023841858 1.4749999046325684 252 196 144
0.375 -1.2599999904632568 0.4375 48 22 50
0.375 -1.2899999618530273 0.42500001192092896 48 22 50
0.375 -1.2599999904632568 0.6875 49 11 15
0.375 -1.2599999904632568 0.7124999761581421 39 13 14
0.375 -1.2599999904632568 0.737500011920929 40 13 14
0.375 -1.2599999904632568 0.762499988079071 42 15 17
0.375 -1.2599999904632568 0.7875000238418579 39 15 17
0.375 -1.2599999904632568 0.8125 38 12 14
0.375 -1.2599999904632568 0.8374999761581421 38 12 16
0.375 -1.2599999904632568 0.862500011920929 47 15 16
0.375 -1.2599999904632568 0.887499988079071 52 13 17
0.375 -1.2599999904632568 0.9125000238418579 59 16 17
0.4000000059604645 -1.2899999618530273 0.9375 66 16 22
0.375 -1.2599999904632568 0.9375 66 16 22
0.4000000059604645 -1.2899999618530273 0.9624999761581421 65 18 18
0.375 -1.2599999904632568 0.9624999761581421 65 18 18
0.3499999940395355 -1.2899999618530273 0.987500011920929 65 21 19
0.4000000059604645 -1.2899999618530273 0.987500011920929 65 21 19
0.375 -1.2599999904632568 0.987500011920929 65 21 19
0.375 -1.2899999618530273 1.0 65 21 19
0.4000000059604645 -1.2899999618530273 1.212499976158142 46 15 16
0.375 -1.2599999904632568 1.212499976158142 46 15 16
0.375 -1.2899999618530273 1.2000000476837158 46 15 16
0.4000000059604645 -1.2899999618530273 1.2374999523162842 46 16 18
0.375 -1.2599999904632568 1.2374999523162842 46 16 18
0.4000000059604645 -1.2899999618530273 1.2625000476837158 43 12 18
0.375 -1.2599999904632568 1.2625000476837158 43 12 18
0.4000000059604645 -1.2899999618530273 1.287500023841858 40 15 18
0.375 -1.2599999904632568 1.287500023841858 40 15 18
0.4000000059604645 -1.2899999618530273 1.3125 46 15 17
0.375 -1.2599999904632568 1.3125 46 15 17
0.4000000059604645 -1.2899999618530273 1.337499976158142 50 16 18
0.375 -1.2599999904632568 1.337499976158142 50 16 18
0.375 -1.2599999904632568 1.3624999523162842 59 15 27
0.375 -1.2599999904632568 1.3875000476837158 75 17 20
0.4000000059604645 -1.2899999618530273 1.412500023841858 106 66 52
0.375 -1.2599999904632568 1.412500023841858 106 66 52
0.4000000059604645 -1.2899999618530273 1.4375 151 89 64
0.375 -1.2599999904632568 1.4375 151 89 64
0.3499999940395355 -1.2899999618530273 1.462499976158142 192 106 84
0.4000000059604645 -1.2899999618530273 1.462499976158142 192 106 84
0.375 -1.2599999904632568 1.462499976158142 192 106 84
0.375 -1.2899999618530273 1.4749999046325684 192 106 84
0.3499999940395355 -1.2300000190734863 0.4625000059604645 51 26 35
0.375 -1.2000000476837158 0.4625000059604645 51 26 35
0.375 -1.2300000190734863 0.44999998807907104 51 26 35
0.3499999940395355 -1.2300000190734863 0.48750001192092896 43 13 16
0.375 -1.2000000476837158 0.48750001192092896 43 13 16
0.3499999940395355 -1.2300000190734863 0.512499988079071 30 11 11
0.375 -1.2000000476837158 0.512499988079071 30 11 11
0.3499999940395355 -1.2300000190734863 0.5375000238418579 45 10 15
0.375 -1.2000000476837158 0.5375000238418579 45 10 15
0.3499999940395355 -1.2300000190734863 0.5625 47 12 15
0.375 -1.2000000476837158 0.5625 47 12 15
0.3499999940395355 -1.2300000190734863 0.5874999761581421 61 17 17
0.375 -1.2000000476837158 0.5874999761581421 61 17 17
0.3499999940395355 -1.2300000190734863 0.612500011920929 58 14 20
0.375 -1.2000000476837158 0.612500011920929 58 14 20
0.3499999940395355 -1.2300000190734863 0.637499988079071 42 11 22
0.375 -1.2000000476837158 0.637499988079071 42 11 22
0.3499999940395355 -1.2300000190734863 0.6625000238418579 44 12 16
0.375 -1.2000000476837158 0.6625000238418579 44 12 16
0.375 -1.2300000190734863 0.675000011920929 44 12 16
0.4000000059604645 -1.5299999713897705 0.8125 70 52 14
0.44999998807907104 -1.5299999713897705 0.8125 70 52 14
0.42500001192092896 -1.559999942779541 0.8125 70 52 14
0.42500001192092896 -1.5299999713897705 0.800000011920929 70 52 14
0.42500001192092896 -1.5299999713897705 0.824999988079071 70 52 14
0.4000000059604645 -1.4700000286102295 0.48750001192092896 51 18 12
0.44999998807907104 -1.4700000286102295 0.48750001192092896 51 18 12
0.42500001192092896 -1.5 0.48750001192092896 51 18 12
0.42500001192092896 -1.4700000286102295 0.4750000238418579 51 18 12
