ply
format ascii 1.0
element vertex 812
property float x
property float y
property float z
property uchar red
property uchar green
property uchar blue
end_header
0.17499999701976776 -1.475000023841858 0.5 31 11 15
0.15000000596046448 -1.475000023841858 0.574999988079071 41 23 19
0.17499999701976776 -1.5 0.574999988079071 41 23 19
0.17499999701976776 -1.475000023841858 0.6000000238418579 41 23 19
0.17499999701976776 -1.475000023841858 1.0499999523162842 27 8 10
0.15000000596046448 -1.475000023841858 1.125 39 9 12
0.15000000596046448 -1.475000023841858 1.1749999523162842 47 11 13
0.17499999701976776 -1.5 1.1749999523162842 47 11 13
0.15000000596046448 -1.475000023841858 1.225000023841858 66 19 11
0.17499999701976776 -1.5 1.225000023841858 66 19 11
0.17499999701976776 -1.475000023841858 1.25 66 19 11
0.15000000596046448 -1.4249999523162842 0.574999988079071 29 9 11
0.17499999701976776 -1.399999976158142 0.574999988079071 29 9 11
0.17499999701976776 -1.4249999523162842 0.5499999523162842 29 9 11
0.15000000596046448 -1.4249999523162842 0.625 31 9 10
0.17499999701976776 -1.4500000476837158 0.625 31 9 10
0.17499999701976776 -1.399999976158142 0.625 31 9 10
0.15000000596046448 -1.4249999523162842 0.675000011920929 32 10 11
0.17499999701976776 -1.4500000476837158 0.675000011920929 32 10 11
0.15000000596046448 -1.4249999523162842 0.7250000238418579 35 10 8
0.17499999701976776 -1.4500000476837158 0.7250000238418579 35 10 8
0.15000000596046448 -1.4249999523162842 0.7749999761581421 38 9 8
0.17499999701976776 -1.4500000476837158 0.7749999761581421 38 9 8
0.15000000596046448 -1.4249999523162842 0.824999988079071 44 10 9
0.17499999701976776 -1.4500000476837158 0.824999988079071 44 10 9
0.15000000596046448 -1.4249999523162842 0.875 48 10 9
0.17499999701976776 -1.4500000476837158 0.875 48 10 9
0.15000000596046448 -1.4249999523162842 0.925000011920929 46 14 11
0.17499999701976776 -1.4500000476837158 0.925000011920929 46 14 11
0.15000000596046448 -1.4249999523162842 0.9750000238418579 101 94 36
0.17499999701976776 -1.4500000476837158 0.9750000238418579 101 94 36
0.15000000596046448 -1.4249999523162842 1.024999976158142 86 111 70
0.17499999701976776 -1.4500000476837158 1.024999976158142 86 111 70
0.17499999701976776 -1.399999976158142 1.024999976158142 86 111 70
0.15000000596046448 -1.4249999523162842 1.1749999523162842 36 10 9
0.15000000596046448 -1.4249999523162842 1.225000023841858 73 17 18
0.15000000596046448 -1.4249999523162842 1.274999976158142 74 13 12
0.17499999701976776 -1.4500000476837158 1.274999976158142 74 13 12
0.17499999701976776 -1.4249999523162842 1.2999999523162842 74 13 12
0.15000000596046448 -1.375 0.675000011920929 35 16 15
0.17499999701976776 -1.350000023841858 0.675000011920929 35 16 15
0.17499999701976776 -1.375 0.6499999761581421 35 16 15
0.15000000596046448 -1.375 0.7250000238418579 33 8 10
0.17499999701976776 -1.350000023841858 0.7250000238418579 33 8 10
0.15000000596046448 -1.375 0.7749999761581421 29 9 9
0.15000000596046448 -1.375 0.824999988079071 34 8 11
0.15000000596046448 -1.375 0.875 37 9 15
0.15000000596046448 -1.375 0.925000011920929 39 10 17
0.17499999701976776 -1.350000023841858 0.925000011920929 39 10 17
0.15000000596046448 -1.375 0.9750000238418579 39 11 19
0.17499999701976776 -1.350000023841858 0.9750000238418579 39 11 19
0.17499999701976776 -1.375 1.0 39 11 19
0.15000000596046448 -1.375 1.0750000476837158 21 20 18
0.17499999701976776 -1.350000023841858 1.0750000476837158 21 20 18
0.17499999701976776 -1.375 1.0499999523162842 21 20 18
0.15000000596046448 -1.375 1.3250000476837158 42 15 12
0.17499999701976776 -1.399999976158142 1.3250000476837158 42 15 12
0.17499999701976776 -1.375 1.350000023841858 42 15 12
0.15000000596046448 -1.3250000476837158 0.7749999761581421 36 19 9
0.17499999701976776 -1.2999999523162842 0.7749999761581421 36 19 9
0.17499999701976776 -1.3250000476837158 0.75 36 19 9
0.15000000596046448 -1.3250000476837158 0.824999988079071 39 11 18
0.17499999701976776 -1.2999999523162842 0.824999988079071 39 11 18
0.15000000596046448 -1.3250000476837158 0.875 44 11 14
0.17499999701976776 -1.2999999523162842 0.875 44 11 14
0.17499999701976776 -1.3250000476837158 0.8999999761581421 44 11 14
0.17499999701976776 -1.2999999523162842 1.125 46 24 22
0.17499999701976776 -1.3250000476837158 1.100000023841858 46 24 22
0.15000000596046448 -1.3250000476837158 1.3250000476837158 63 9 14
0.17499999701976776 -1.3250000476837158 1.350000023841858 63 9 14
0.15000000596046448 -1.3250000476837158 1.4249999523162842 72 54 47
0.17499999701976776 -1.350000023841858 1.4249999523162842 72 54 47
0.17499999701976776 -1.3250000476837158 1.399999976158142 72 54 47
0.17499999701976776 -1.350000023841858 1.475000023841858 119 95 64
0.17499999701976776 -1.350000023841858 1.524999976158142 148 107 62
0.17499999701976776 -1.350000023841858 1.5750000476837158 70 58 43
0.17499999701976776 -1.3250000476837158 1.600000023841858 70 58 43
0.17499999701976776 -1.274999976158142 1.149999976158142 32 20 19
0.15000000596046448 -1.274999976158142 1.3250000476837158 56 14 17
0.15000000596046448 -1.274999976158142 1.375 64 51 31
0.17499999701976776 -1.2999999523162842 1.375 64 51 31
0.17499999701976776 -1.25 1.375 64 51 31
0.17499999701976776 -1.25 1.4249999523162842 255 255 255
0.17499999701976776 -1.2999999523162842 1.625 52 35 34
0.17499999701976776 -1.274999976158142 1.649999976158142 52 35 34
0.19999998807907104 -1.225000023841858 1.1749999523162842 45 33 31
0.17499999701976776 -1.2000000476837158 1.1749999523162842 45 33 31
0.17499999701976776 -1.225000023841858 1.149999976158142 45 33 31
0.17499999701976776 -1.2000000476837158 1.225000023841858 40 30 25
0.17499999701976776 -1.2000000476837158 1.274999976158142 58 31 31
0.15000000596046448 -1.225000023841858 1.3250000476837158 68 14 16
0.17499999701976776 -1.2000000476837158 1.3250000476837158 68 14 16
0.17499999701976776 -1.225000023841858 1.350000023841858 68 14 16
0.17499999701976776 -1.225000023841858 1.4500000476837158 34 17 16
0.17499999701976776 -1.225000023841858 1.649999976158142 48 28 30
0.15000000596046448 -1.1749999523162842 1.475000023841858 31 22 25
0.17499999701976776 -1.149999976158142 1.475000023841858 31 22 25
0.17499999701976776 -1.1749999523162842 1.4500000476837158 31 22 25
0.17499999701976776 -1.149999976158142 1.524999976158142 19 14 16
0.17499999701976776 -1.149999976158142 1.5750000476837158 31 21 30
0.15000000596046448 -1.1749999523162842 1.625 43 30 32
0.19999998807907104 -1.1749999523162842 1.625 43 30 32
0.17499999701976776 -1.149999976158142 1.625 43 30 32
0.17499999701976776 -1.1749999523162842 1.649999976158142 43 30 32
0.25 -1.625 0.02500000037252903 60 47 36
0.22499999403953552 -1.649999976158142 0.02500000037252903 60 47 36
0.22499999403953552 -1.625 0.0 60 47 36
0.19999998807907104 -1.625 0.07500000298023224 91 71 51
0.22499999403953552 -1.649999976158142 0.07500000298023224 91 71 51
0.22499999403953552 -1.625 0.10000000149011612 91 71 51
0.22499999403953552 -1.5499999523162842 0.02500000037252903 46 39 32
0.22499999403953552 -1.5750000476837158 0.0 46 39 32
0.19999998807907104 -1.5750000476837158 0.07500000298023224 59 44 33
0.22499999403953552 -1.5499999523162842 0.07500000298023224 59 44 33
0.19999998807907104 -1.5750000476837158 0.125 49 41 35
0.22499999403953552 -1.600000023841858 0.125 49 41 35
0.22499999403953552 -1.5499999523162842 0.125 49 41 35
0.22499999403953552 -1.5750000476837158 0.15000000596046448 49 41 35
0.19999998807907104 -1.524999976158142 0.22499999403953552 44 34 28
0.22499999403953552 -1.5499999523162842 0.22499999403953552 44 34 28
0.22499999403953552 -1.5 0.22499999403953552 44 34 28
0.22499999403953552 -1.524999976158142 0.19999998807907104 44 34 28
0.19999998807907104 -1.524999976158142 0.2750000059604645 58 40 27
0.22499999403953552 -1.5499999523162842 0.2750000059604645 58 40 27
0.22499999403953552 -1.5 0.2750000059604645 58 40 27
0.19999998807907104 -1.524999976158142 0.32499998807907104 69 48 36
0.22499999403953552 -1.5499999523162842 0.32499998807907104 69 48 36
0.22499999403953552 -1.524999976158142 0.3499999940395355 69 48 36
0.19999998807907104 -1.524999976158142 0.42500001192092896 62 36 28
0.22499999403953552 -1.5499999523162842 0.42500001192092896 62 36 28
0.22499999403953552 -1.524999976158142 0.4000000059604645 62 36 28
0.19999998807907104 -1.524999976158142 0.4749999940395355 46 11 12
0.22499999403953552 -1.5499999523162842 0.4749999940395355 46 11 12
0.19999998807907104 -1.524999976158142 0.5249999761581421 62 15 17
0.22499999403953552 -1.5499999523162842 0.5249999761581421 62 15 17
0.19999998807907104 -1.524999976158142 0.574999988079071 60 13 15
0.22499999403953552 -1.5499999523162842 0.574999988079071 60 13 15
0.22499999403953552 -1.524999976158142 0.6000000238418579 60 13 15
0.22499999403953552 -1.5499999523162842 1.125 55 16 8
0.22499999403953552 -1.524999976158142 1.100000023841858 55 16 8
0.22499999403953552 -1.524999976158142 1.149999976158142 55 16 8
0.19999998807907104 -1.475000023841858 0.32499998807907104 41 33 25
0.22499999403953552 -1.4500000476837158 0.32499998807907104 41 33 25
0.22499999403953552 -1.475000023841858 0.30000001192092896 41 33 25
0.19999998807907104 -1.475000023841858 0.375 47 34 26
0.22499999403953552 -1.5 0.375 47 34 26
0.22499999403953552 -1.4500000476837158 0.375 47 34 26
0.19999998807907104 -1.475000023841858 0.42500001192092896 28 10 11
0.22499999403953552 -1.4500000476837158 0.42500001192092896 28 10 11
0.19999998807907104 -1.475000023841858 0.4749999940395355 31 11 9
0.19999998807907104 -1.475000023841858 0.625 50 12 6
0.22499999403953552 -1.5 0.625 50 12 6
0.19999998807907104 -1.475000023841858 0.675000011920929 53 14 12
0.22499999403953552 -1.5 0.675000011920929 53 14 12
0.19999998807907104 -1.475000023841858 0.7250000238418579 48 14 8
0.22499999403953552 -1.5 0.7250000238418579 48 14 8
0.19999998807907104 -1.475000023841858 0.7749999761581421 53 12 13
0.22499999403953552 -1.5 0.7749999761581421 53 12 13
0.19999998807907104 -1.475000023841858 0.824999988079071 36 9 7
0.22499999403953552 -1.5 0.824999988079071 36 9 7
0.19999998807907104 -1.475000023841858 0.875 43 12 13
0.22499999403953552 -1.5 0.875 43 12 13
0.19999998807907104 -1.475000023841858 0.925000011920929 31 11 10
0.22499999403953552 -1.5 0.925000011920929 31 11 10
0.19999998807907104 -1.475000023841858 0.9750000238418579 35 11 10
0.22499999403953552 -1.5 0.9750000238418579 35 11 10
0.19999998807907104 -1.475000023841858 1.024999976158142 255 255 255
0.22499999403953552 -1.5 1.024999976158142 255 255 255
0.22499999403953552 -1.5 1.0750000476837158 255 255 255
0.22499999403953552 -1.5 1.1749999523162842 53 12 11
0.22499999403953552 -1.5 1.225000023841858 67 13 10
0.19999998807907104 -1.475000023841858 1.274999976158142 131 40 22
0.22499999403953552 -1.5 1.274999976158142 131 40 22
0.22499999403953552 -1.475000023841858 1.2999999523162842 131 40 22
0.19999998807907104 -1.4249999523162842 0.4749999940395355 15 6 11
0.22499999403953552 -1.4249999523162842 0.44999998807907104 15 6 11
0.19999998807907104 -1.4249999523162842 0.5249999761581421 16 7 10
0.19999998807907104 -1.4249999523162842 1.3250000476837158 215 147 101
0.22499999403953552 -1.4500000476837158 1.3250000476837158 215 147 101
0.22499999403953552 -1.4249999523162842 1.350000023841858 215 147 101
0.19999998807907104 -1.375 0.4749999940395355 37 10 11
0.22499999403953552 -1.350000023841858 0.4749999940395355 37 10 11
0.22499999403953552 -1.375 0.44999998807907104 37 10 11
0.19999998807907104 -1.375 0.5249999761581421 25 7 13
0.22499999403953552 -1.350000023841858 0.5249999761581421 25 7 13
0.19999998807907104 -1.375 0.574999988079071 26 8 16
0.22499999403953552 -1.350000023841858 0.574999988079071 26 8 16
0.19999998807907104 -1.375 0.625 19 8 14
0.22499999403953552 -1.350000023841858 0.625 19 8 14
0.19999998807907104 -1.375 1.024999976158142 27 9 16
0.19999998807907104 -1.375 1.375 194 127 99
0.22499999403953552 -1.399999976158142 1.375 194 127 99
0.22499999403953552 -1.375 1.399999976158142 194 127 99
0.19999998807907104 -1.3250000476837158 0.675000011920929 24 7 14
0.22499999403953552 -1.2999999523162842 0.675000011920929 24 7 14
0.22499999403953552 -1.3250000476837158 0.6499999761581421 24 7 14
0.19999998807907104 -1.3250000476837158 0.7250000238418579 23 7 14
0.22499999403953552 -1.2999999523162842 0.7250000238418579 23 7 14
0.19999998807907104 -1.3250000476837158 0.925000011920929 56 11 19
0.22499999403953552 -1.2999999523162842 0.925000011920929 56 11 19
0.19999998807907104 -1.3250000476837158 0.9750000238418579 44 12 18
0.22499999403953552 -1.2999999523162842 0.9750000238418579 44 12 18
0.19999998807907104 -1.3250000476837158 1.024999976158142 32 8 16
0.22499999403953552 -1.2999999523162842 1.024999976158142 32 8 16
0.19999998807907104 -1.3250000476837158 1.0750000476837158 23 10 16
0.22499999403953552 -1.2999999523162842 1.0750000476837158 23 10 16
0.19999998807907104 -1.3250000476837158 1.375 102 67 50
0.22499999403953552 -1.350000023841858 1.4249999523162842 123 74 50
0.25 -1.3250000476837158 1.475000023841858 162 104 56
0.22499999403953552 -1.350000023841858 1.475000023841858 162 104 56
0.25 -1.3250000476837158 1.524999976158142 119 69 51
0.22499999403953552 -1.350000023841858 1.524999976158142 119 69 51
0.25 -1.3250000476837158 1.5750000476837158 70 53 50
0.22499999403953552 -1.350000023841858 1.5750000476837158 70 53 50
0.22499999403953552 -1.3250000476837158 1.600000023841858 70 53 50
0.19999998807907104 -1.274999976158142 0.7749999761581421 35 18 17
0.22499999403953552 -1.25 0.7749999761581421 35 18 17
0.22499999403953552 -1.274999976158142 0.75 35 18 17
0.19999998807907104 -1.274999976158142 0.824999988079071 33 11 16
0.22499999403953552 -1.25 0.824999988079071 33 11 16
0.19999998807907104 -1.274999976158142 0.875 46 12 18
0.22499999403953552 -1.25 0.875 46 12 18
0.22499999403953552 -1.274999976158142 0.8999999761581421 46 12 18
0.19999998807907104 -1.274999976158142 1.125 31 14 20
0.25 -1.274999976158142 1.125 31 14 20
0.22499999403953552 -1.25 1.125 31 14 20
0.22499999403953552 -1.274999976158142 1.100000023841858 31 14 20
0.22499999403953552 -1.25 1.1749999523162842 26 9 16
0.25 -1.274999976158142 1.625 51 33 33
0.22499999403953552 -1.2999999523162842 1.625 51 33 33
0.22499999403953552 -1.274999976158142 1.649999976158142 51 33 33
0.25 -1.225000023841858 1.225000023841858 32 11 21
0.22499999403953552 -1.2000000476837158 1.225000023841858 32 11 21
0.22499999403953552 -1.225000023841858 1.2000000476837158 32 11 21
0.22499999403953552 -1.2000000476837158 1.274999976158142 49 14 10
0.22499999403953552 -1.2000000476837158 1.3250000476837158 56 14 18
0.19999998807907104 -1.225000023841858 1.375 39 13 15
0.22499999403953552 -1.2000000476837158 1.375 39 13 15
0.19999998807907104 -1.225000023841858 1.4249999523162842 45 27 23
0.25 -1.225000023841858 1.4249999523162842 45 27 23
0.22499999403953552 -1.2000000476837158 1.4249999523162842 45 27 23
0.25 -1.225000023841858 1.475000023841858 16 10 13
0.22499999403953552 -1.2000000476837158 1.625 55 36 28
0.22499999403953552 -1.225000023841858 1.649999976158142 55 36 28
0.25 -1.1749999523162842 1.475000023841858 31 18 16
0.22499999403953552 -1.149999976158142 1.475000023841858 31 18 16
0.22499999403953552 -1.1749999523162842 1.4500000476837158 31 18 16
0.22499999403953552 -1.149999976158142 1.5750000476837158 31 22 22
0.22499999403953552 -1.1749999523162842 1.600000023841858 31 22 22
0.19999998807907104 -1.125 1.524999976158142 23 17 16
0.25 -1.125 1.524999976158142 23 17 16
0.22499999403953552 -1.100000023841858 1.524999976158142 23 17 16
0.22499999403953552 -1.125 1.5 23 17 16
0.22499999403953552 -1.125 1.5499999523162842 23 17 16
0.30000001192092896 -1.625 0.07500000298023224 36 41 39
0.2750000059604645 -1.649999976158142 0.07500000298023224 36 41 39
0.2750000059604645 -1.625 0.05000000074505806 36 41 39
0.2750000059604645 -1.625 0.10000000149011612 36 41 39
0.30000001192092896 -1.5750000476837158 0.02500000037252903 39 41 30
0.2750000059604645 -1.600000023841858 0.02500000037252903 39 41 30
0.2750000059604645 -1.5499999523162842 0.02500000037252903 39 41 30
0.2750000059604645 -1.5750000476837158 0.0 39 41 30
0.30000001192092896 -1.5750000476837158 0.07500000298023224 53 38 36
0.2750000059604645 -1.5499999523162842 0.07500000298023224 53 38 36
0.30000001192092896 -1.5750000476837158 0.125 81 59 45
0.2750000059604645 -1.600000023841858 0.125 81 59 45
0.2750000059604645 -1.5499999523162842 0.125 81 59 45
0.25 -1.5750000476837158 0.17499999701976776 91 63 44
0.30000001192092896 -1.5750000476837158 0.17499999701976776 91 63 44
0.2750000059604645 -1.600000023841858 0.17499999701976776 91 63 44
0.2750000059604645 -1.5750000476837158 0.19999998807907104 91 63 44
0.25 -1.524999976158142 0.17499999701976776 46 39 32
0.30000001192092896 -1.524999976158142 0.17499999701976776 46 39 32
0.2750000059604645 -1.5 0.17499999701976776 46 39 32
0.2750000059604645 -1.524999976158142 0.15000000596046448 46 39 32
0.30000001192092896 -1.524999976158142 0.22499999403953552 53 43 34
0.2750000059604645 -1.5499999523162842 0.22499999403953552 53 43 34
0.2750000059604645 -1.5 0.22499999403953552 53 43 34
0.30000001192092896 -1.524999976158142 0.2750000059604645 74 52 40
0.2750000059604645 -1.5499999523162842 0.2750000059604645 74 52 40
0.2750000059604645 -1.5499999523162842 0.32499998807907104 86 64 46
0.25 -1.524999976158142 0.375 82 63 44
0.30000001192092896 -1.524999976158142 0.375 82 63 44
0.2750000059604645 -1.5499999523162842 0.375 82 63 44
0.30000001192092896 -1.524999976158142 0.42500001192092896 55 46 34
0.2750000059604645 -1.5499999523162842 0.42500001192092896 55 46 34
0.2750000059604645 -1.5499999523162842 0.4749999940395355 54 14 16
0.2750000059604645 -1.5499999523162842 0.5249999761581421 58 14 12
0.30000001192092896 -1.524999976158142 0.574999988079071 58 24 18
0.2750000059604645 -1.5499999523162842 0.574999988079071 58 24 18
0.2750000059604645 -1.524999976158142 0.6000000238418579 58 24 18
0.25 -1.524999976158142 0.875 46 12 10
0.2750000059604645 -1.5499999523162842 0.875 46 12 10
0.2750000059604645 -1.524999976158142 0.8500000238418579 46 12 10
0.25 -1.524999976158142 0.925000011920929 44 12 8
0.2750000059604645 -1.5499999523162842 0.925000011920929 44 12 8
0.25 -1.524999976158142 0.9750000238418579 41 10 12
0.2750000059604645 -1.5499999523162842 0.9750000238418579 41 10 12
0.25 -1.524999976158142 1.024999976158142 46 14 8
0.2750000059604645 -1.5499999523162842 1.024999976158142 46 14 8
0.25 -1.524999976158142 1.0750000476837158 28 8 8
0.2750000059604645 -1.5499999523162842 1.0750000476837158 28 8 8
0.2750000059604645 -1.5499999523162842 1.125 56 14 11
0.25 -1.524999976158142 1.1749999523162842 51 12 12
0.2750000059604645 -1.5499999523162842 1.1749999523162842 51 12 12
0.25 -1.524999976158142 1.225000023841858 47 10 10
0.2750000059604645 -1.5499999523162842 1.225000023841858 47 10 10
0.25 -1.524999976158142 1.274999976158142 81 43 39
0.30000001192092896 -1.524999976158142 1.274999976158142 81 43 39
0.2750000059604645 -1.5499999523162842 1.274999976158142 81 43 39
0.2750000059604645 -1.524999976158142 1.2999999523162842 81 43 39
0.25 -1.475000023841858 0.2750000059604645 35 27 26
0.30000001192092896 -1.475000023841858 0.2750000059604645 35 27 26
0.2750000059604645 -1.4500000476837158 0.2750000059604645 35 27 26
0.2750000059604645 -1.475000023841858 0.25 35 27 26
0.30000001192092896 -1.475000023841858 0.32499998807907104 50 37 28
0.2750000059604645 -1.4500000476837158 0.32499998807907104 50 37 28
0.30000001192092896 -1.475000023841858 0.375 78 53 45
0.2750000059604645 -1.5 0.625 56 12 15
0.2750000059604645 -1.5 0.675000011920929 49 12 15
0.2750000059604645 -1.5 0.7250000238418579 43 12 14
0.2750000059604645 -1.5 0.7749999761581421 37 13 13
0.2750000059604645 -1.5 0.824999988079071 30 9 13
0.25 -1.475000023841858 1.3250000476837158 107 16 16
0.2750000059604645 -1.5 1.3250000476837158 107 16 16
0.2750000059604645 -1.475000023841858 1.350000023841858 107 16 16
0.25 -1.4249999523162842 0.375 27 22 6
0.30000001192092896 -1.4249999523162842 0.375 27 22 6
0.2750000059604645 -1.399999976158142 0.375 27 22 6
0.2750000059604645 -1.4249999523162842 0.3499999940395355 27 22 6
0.25 -1.4249999523162842 0.42500001192092896 255 255 255
0.30000001192092896 -1.4249999523162842 0.42500001192092896 255 255 255
0.30000001192092896 -1.4249999523162842 0.4749999940395355 255 255 255
0.25 -1.4249999523162842 1.375 99 14 15
0.2750000059604645 -1.4500000476837158 1.375 99 14 15
0.2750000059604645 -1.4249999523162842 1.399999976158142 99 14 15
0.25 -1.375 0.42500001192092896 39 43 44
0.30000001192092896 -1.375 0.42500001192092896 39 43 44
0.2750000059604645 -1.350000023841858 0.42500001192092896 39 43 44
0.2750000059604645 -1.375 0.4000000059604645 39 43 44
0.2750000059604645 -1.375 1.399999976158142 196 104 96
0.25 -1.3250000476837158 0.4749999940395355 31 8 5
0.2750000059604645 -1.2999999523162842 0.4749999940395355 31 8 5
0.2750000059604645 -1.3250000476837158 0.44999998807907104 31 8 5
0.25 -1.3250000476837158 0.5249999761581421 37 7 13
0.2750000059604645 -1.2999999523162842 0.5249999761581421 37 7 13
0.25 -1.3250000476837158 0.574999988079071 35 10 18
0.2750000059604645 -1.2999999523162842 0.574999988079071 35 10 18
0.25 -1.3250000476837158 0.625 26 9 15
0.2750000059604645 -1.2999999523162842 0.625 26 9 15
0.2750000059604645 -1.2999999523162842 0.925000011920929 60 13 16
0.2750000059604645 -1.2999999523162842 0.9750000238418579 45 13 13
0.2750000059604645 -1.2999999523162842 1.024999976158142 36 11 16
0.2750000059604645 -1.2999999523162842 1.0750000476837158 33 11 17
0.2750000059604645 -1.2999999523162842 1.125 30 10 16
0.2750000059604645 -1.350000023841858 1.4249999523162842 64 26 26
0.2750000059604645 -1.3250000476837158 1.4500000476837158 64 26 26
0.25 -1.274999976158142 0.675000011920929 36 12 16
0.2750000059604645 -1.25 0.675000011920929 36 12 16
0.2750000059604645 -1.274999976158142 0.6499999761581421 36 12 16
0.25 -1.274999976158142 0.7250000238418579 28 9 14
0.2750000059604645 -1.25 0.7250000238418579 28 9 14
0.2750000059604645 -1.25 0.7749999761581421 29 10 14
0.2750000059604645 -1.25 0.824999988079071 40 11 15
0.2750000059604645 -1.25 0.875 54 14 14
0.2750000059604645 -1.274999976158142 0.8999999761581421 54 14 14
0.30000001192092896 -1.274999976158142 1.1749999523162842 31 10 18
0.2750000059604645 -1.25 1.1749999523162842 31 10 18
0.2750000059604645 -1.274999976158142 1.149999976158142 31 10 18
0.2750000059604645 -1.25 1.225000023841858 41 14 19
0.2750000059604645 -1.25 1.4249999523162842 37 19 16
0.30000001192092896 -1.274999976158142 1.475000023841858 118 78 50
0.2750000059604645 -1.2999999523162842 1.475000023841858 118 78 50
0.2750000059604645 -1.25 1.475000023841858 118 78 50
0.30000001192092896 -1.274999976158142 1.524999976158142 27 22 19
0.2750000059604645 -1.2999999523162842 1.524999976158142 27 22 19
0.30000001192092896 -1.274999976158142 1.5750000476837158 31 28 21
0.2750000059604645 -1.2999999523162842 1.5750000476837158 31 28 21
0.2750000059604645 -1.274999976158142 1.600000023841858 31 28 21
0.30000001192092896 -1.225000023841858 1.274999976158142 49 15 16
0.2750000059604645 -1.2000000476837158 1.274999976158142 49 15 16
0.2750000059604645 -1.225000023841858 1.25 49 15 16
0.2750000059604645 -1.2000000476837158 1.3250000476837158 49 14 16
0.30000001192092896 -1.225000023841858 1.375 36 13 16
0.2750000059604645 -1.2000000476837158 1.375 36 13 16
0.2750000059604645 -1.225000023841858 1.399999976158142 36 13 16
0.2750000059604645 -1.225000023841858 1.5 24 19 16
0.30000001192092896 -1.225000023841858 1.625 42 32 33
0.2750000059604645 -1.25 1.625 42 32 33
0.2750000059604645 -1.225000023841858 1.649999976158142 42 32 33
0.30000001192092896 -1.1749999523162842 1.524999976158142 30 15 17
0.2750000059604645 -1.149999976158142 1.524999976158142 30 15 17
0.2750000059604645 -1.1749999523162842 1.5 30 15 17
0.2750000059604645 -1.149999976158142 1.5750000476837158 35 22 23
0.25 -1.1749999523162842 1.625 46 28 23
0.30000001192092896 -1.1749999523162842 1.625 46 28 23
0.2750000059604645 -1.149999976158142 1.625 46 28 23
0.2750000059604645 -1.1749999523162842 1.649999976158142 46 28 23
0.3499999940395355 -1.524999976158142 0.32499998807907104 70 58 43
0.32499998807907104 -1.5499999523162842 0.32499998807907104 70 58 43
0.32499998807907104 -1.5 0.32499998807907104 70 58 43
0.32499998807907104 -1.524999976158142 0.30000001192092896 70 58 43
0.32499998807907104 -1.524999976158142 0.3499999940395355 70 58 43
0.3499999940395355 -1.524999976158142 0.4749999940395355 52 39 30
0.32499998807907104 -1.5499999523162842 0.4749999940395355 52 39 30
0.32499998807907104 -1.524999976158142 0.44999998807907104 52 39 30
0.3499999940395355 -1.524999976158142 0.5249999761581421 38 14 10
0.32499998807907104 -1.5499999523162842 0.5249999761581421 38 14 10
0.32499998807907104 -1.524999976158142 0.5499999523162842 38 14 10
0.32499998807907104 -1.5499999523162842 0.875 45 15 15
0.32499998807907104 -1.524999976158142 0.8500000238418579 45 15 15
0.32499998807907104 -1.5499999523162842 0.925000011920929 52 17 13
0.32499998807907104 -1.5499999523162842 0.9750000238418579 39 12 11
0.32499998807907104 -1.5499999523162842 1.024999976158142 44 12 12
0.32499998807907104 -1.5499999523162842 1.0750000476837158 46 13 9
0.32499998807907104 -1.5499999523162842 1.125 52 14 15
0.3499999940395355 -1.524999976158142 1.1749999523162842 58 18 15
0.32499998807907104 -1.5499999523162842 1.1749999523162842 58 18 15
0.3499999940395355 -1.524999976158142 1.225000023841858 65 17 15
0.32499998807907104 -1.5499999523162842 1.225000023841858 65 17 15
0.32499998807907104 -1.524999976158142 1.25 65 17 15
0.3499999940395355 -1.475000023841858 0.42500001192092896 54 50 48
0.32499998807907104 -1.5 0.42500001192092896 54 50 48
0.32499998807907104 -1.4500000476837158 0.42500001192092896 54 50 48
0.32499998807907104 -1.475000023841858 0.4000000059604645 54 50 48
0.3499999940395355 -1.475000023841858 0.4749999940395355 47 92 78
0.32499998807907104 -1.4500000476837158 0.4749999940395355 47 92 78
0.3499999940395355 -1.475000023841858 0.5249999761581421 24 11 18
0.32499998807907104 -1.5 0.574999988079071 41 10 19
0.32499998807907104 -1.5 0.625 47 15 11
0.32499998807907104 -1.5 0.675000011920929 41 13 16
0.32499998807907104 -1.5 0.7250000238418579 36 13 8
0.32499998807907104 -1.5 0.7749999761581421 42 12 14
0.32499998807907104 -1.5 0.824999988079071 255 255 255
0.32499998807907104 -1.5 1.274999976158142 60 13 12
0.3499999940395355 -1.475000023841858 1.3250000476837158 96 19 17
0.32499998807907104 -1.5 1.3250000476837158 96 19 17
0.32499998807907104 -1.475000023841858 1.350000023841858 96 19 17
0.32499998807907104 -1.4249999523162842 0.5 255 255 255
0.32499998807907104 -1.4500000476837158 1.375 123 25 24
0.32499998807907104 -1.4249999523162842 1.399999976158142 123 25 24
0.32499998807907104 -1.399999976158142 0.4749999940395355 255 255 255
0.32499998807907104 -1.375 0.44999998807907104 255 255 255
0.30000001192092896 -1.375 1.4249999523162842 112 19 19
0.32499998807907104 -1.399999976158142 1.4249999523162842 112 19 19
0.32499998807907104 -1.375 1.4500000476837158 112 19 19
0.30000001192092896 -1.3250000476837158 0.42500001192092896 47 34 26
0.32499998807907104 -1.350000023841858 0.42500001192092896 47 34 26
0.32499998807907104 -1.2999999523162842 0.42500001192092896 47 34 26
0.32499998807907104 -1.3250000476837158 0.4000000059604645 47 34 26
0.32499998807907104 -1.2999999523162842 0.9750000238418579 57 10 15
0.32499998807907104 -1.2999999523162842 1.024999976158142 44 12 17
0.32499998807907104 -1.2999999523162842 1.0750000476837158 33 11 14
0.32499998807907104 -1.2999999523162842 1.125 38 12 16
0.32499998807907104 -1.2999999523162842 1.1749999523162842 34 10 13
0.32499998807907104 -1.3250000476837158 1.4500000476837158 101 19 21
0.30000001192092896 -1.274999976158142 0.4749999940395355 48 12 16
0.32499998807907104 -1.25 0.4749999940395355 48 12 16
0.32499998807907104 -1.274999976158142 0.44999998807907104 48 12 16
0.30000001192092896 -1.274999976158142 0.5249999761581421 44 9 15
0.32499998807907104 -1.25 0.5249999761581421 44 9 15
0.30000001192092896 -1.274999976158142 0.574999988079071 45 11 13
0.32499998807907104 -1.25 0.574999988079071 45 11 13
0.30000001192092896 -1.274999976158142 0.625 32 11 18
0.32499998807907104 -1.25 0.625 32 11 18
0.32499998807907104 -1.25 0.675000011920929 33 12 14
0.32499998807907104 -1.25 0.7250000238418579 38 13 15
0.32499998807907104 -1.25 0.7749999761581421 38 8 15
0.32499998807907104 -1.25 0.824999988079071 39 12 17
0.32499998807907104 -1.25 0.875 53 14 17
0.30000001192092896 -1.274999976158142 0.925000011920929 59 17 17
0.32499998807907104 -1.25 0.925000011920929 59 17 17
0.32499998807907104 -1.274999976158142 0.9500000476837158 59 17 17
0.3499999940395355 -1.274999976158142 1.225000023841858 39 12 18
0.32499998807907104 -1.25 1.225000023841858 39 12 18
0.32499998807907104 -1.274999976158142 1.2000000476837158 39 12 18
0.32499998807907104 -1.25 1.274999976158142 45 12 19
0.32499998807907104 -1.25 1.375 51 14 23
0.32499998807907104 -1.25 1.4249999523162842 76 19 22
0.32499998807907104 -1.274999976158142 1.4500000476837158 76 19 22
0.3499999940395355 -1.225000023841858 1.3250000476837158 44 11 20
0.32499998807907104 -1.2000000476837158 1.3250000476837158 44 11 20
0.32499998807907104 -1.225000023841858 1.2999999523162842 44 11 20
0.32499998807907104 -1.225000023841858 1.350000023841858 44 11 20
0.3499999940395355 -1.225000023841858 1.524999976158142 41 31 20
0.32499998807907104 -1.25 1.524999976158142 41 31 20
0.32499998807907104 -1.2000000476837158 1.524999976158142 41 31 20
0.32499998807907104 -1.225000023841858 1.5 41 31 20
0.3499999940395355 -1.225000023841858 1.5750000476837158 42 25 27
0.32499998807907104 -1.25 1.5750000476837158 42 25 27
0.32499998807907104 -1.225000023841858 1.600000023841858 42 25 27
0.3499999940395355 -1.1749999523162842 1.5750000476837158 37 28 27
0.32499998807907104 -1.149999976158142 1.5750000476837158 37 28 27
0.32499998807907104 -1.1749999523162842 1.5499999523162842 37 28 27
0.32499998807907104 -1.1749999523162842 1.600000023841858 37 28 27
0.3499999940395355 -1.524999976158142 0.7749999761581421 41 15 14
0.375 -1.5499999523162842 0.7749999761581421 41 15 14
0.375 -1.524999976158142 0.75 41 15 14
0.375 -1.524999976158142 0.7999999523162842 41 15 14
0.4000000059604645 -1.524999976158142 0.875 38 14 15
0.375 -1.5499999523162842 0.875 38 14 15
0.375 -1.524999976158142 0.8500000238418579 38 14 15
0.4000000059604645 -1.524999976158142 0.925000011920929 53 14 15
0.375 -1.5499999523162842 0.925000011920929 53 14 15
0.4000000059604645 -1.524999976158142 0.9750000238418579 56 15 14
0.375 -1.5499999523162842 0.9750000238418579 56 15 14
0.4000000059604645 -1.524999976158142 1.024999976158142 48 18 16
0.375 -1.5499999523162842 1.024999976158142 48 18 16
0.4000000059604645 -1.524999976158142 1.0750000476837158 48 16 17
0.375 -1.5499999523162842 1.0750000476837158 48 16 17
0.4000000059604645 -1.524999976158142 1.125 60 16 23
0.375 -1.5499999523162842 1.125 60 16 23
0.375 -1.524999976158142 1.149999976158142 60 16 23
0.375 -1.5 0.574999988079071 24 11 8
0.375 -1.475000023841858 0.5499999523162842 24 11 8
0.375 -1.5 0.625 32 13 11
0.375 -1.5 0.675000011920929 38 13 11
0.375 -1.5 0.7250000238418579 31 10 12
0.375 -1.5 0.824999988079071 54 16 13
0.4000000059604645 -1.475000023841858 1.1749999523162842 67 18 15
0.375 -1.5 1.1749999523162842 67 18 15
0.4000000059604645 -1.475000023841858 1.225000023841858 63 16 13
0.375 -1.5 1.225000023841858 63 16 13
0.4000000059604645 -1.475000023841858 1.274999976158142 65 13 17
0.375 -1.5 1.274999976158142 65 13 17
0.375 -1.475000023841858 1.2999999523162842 65 13 17
0.3499999940395355 -1.4249999523162842 0.4749999940395355 255 255 255
0.375 -1.4500000476837158 0.4749999940395355 255 255 255
0.375 -1.4249999523162842 0.44999998807907104 255 255 255
0.375 -1.4500000476837158 0.5249999761581421 255 255 255
0.375 -1.4500000476837158 1.3250000476837158 48 21 16
0.4000000059604645 -1.4249999523162842 1.375 108 68 45
0.375 -1.4500000476837158 1.375 108 68 45
0.375 -1.4249999523162842 1.399999976158142 108 68 45
0.3499999940395355 -1.375 0.42500001192092896 255 255 255
0.375 -1.399999976158142 0.42500001192092896 255 255 255
0.375 -1.375 0.4000000059604645 255 255 255
0.375 -1.399999976158142 1.4249999523162842 185 141 84
0.375 -1.375 1.4500000476837158 185 141 84
0.375 -1.2999999523162842 0.42500001192092896 45 71 53
0.375 -1.3250000476837158 0.4000000059604645 45 71 53
0.375 -1.2999999523162842 0.9750000238418579 68 14 15
0.4000000059604645 -1.3250000476837158 1.024999976158142 56 15 15
0.375 -1.2999999523162842 1.024999976158142 56 15 15
0.4000000059604645 -1.3250000476837158 1.0750000476837158 51 14 16
0.375 -1.2999999523162842 1.0750000476837158 51 14 16
0.4000000059604645 -1.3250000476837158 1.125 40 12 15
0.375 -1.2999999523162842 1.125 40 12 15
0.4000000059604645 -1.3250000476837158 1.1749999523162842 43 12 17
0.375 -1.2999999523162842 1.1749999523162842 43 12 17
0.4000000059604645 -1.3250000476837158 1.225000023841858 45 11 18
0.375 -1.2999999523162842 1.225000023841858 45 11 18
0.4000000059604645 -1.3250000476837158 1.274999976158142 44 12 22
0.3499999940395355 -1.3250000476837158 1.475000023841858 198 158 113
0.375 -1.350000023841858 1.475000023841858 198 158 113
0.375 -1.2999999523162842 1.475000023841858 198 158 113
0.375 -1.3250000476837158 1.5 198 158 113
0.375 -1.25 0.4749999940395355 29 10 13
0.375 -1.274999976158142 0.44999998807907104 29 10 13
0.375 -1.25 0.675000011920929 52 15 15
0.375 -1.25 0.7250000238418579 52 12 20
0.375 -1.25 0.7749999761581421 46 12 19
0.375 -1.25 0.824999988079071 39 11 15
0.375 -1.25 0.875 55 16 17
0.4000000059604645 -1.274999976158142 0.925000011920929 62 17 21
0.375 -1.25 0.925000011920929 62 17 21
0.375 -1.274999976158142 0.9500000476837158 62 17 21
0.4000000059604645 -1.274999976158142 1.274999976158142 60 12 17
0.375 -1.25 1.274999976158142 60 12 17
0.375 -1.274999976158142 1.25 60 12 17
0.4000000059604645 -1.274999976158142 1.3250000476837158 47 12 19
0.375 -1.25 1.3250000476837158 47 12 19
0.375 -1.25 1.375 60 16 22
0.4000000059604645 -1.274999976158142 1.4249999523162842 121 61 55
0.375 -1.25 1.4249999523162842 121 61 55
0.375 -1.274999976158142 1.4500000476837158 121 61 55
0.3499999940395355 -1.225000023841858 0.5249999761581421 33 9 12
0.375 -1.2000000476837158 0.5249999761581421 33 9 12
0.375 -1.225000023841858 0.5 33 9 12
0.3499999940395355 -1.225000023841858 0.574999988079071 62 13 17
0.375 -1.2000000476837158 0.574999988079071 62 13 17
0.3499999940395355 -1.225000023841858 0.625 62 14 19
0.375 -1.2000000476837158 0.625 62 14 19
0.375 -1.225000023841858 0.6499999761581421 62 14 19
0.44999998807907104 -1.524999976158142 0.7749999761581421 68 76 17
0.42500001192092896 -1.5499999523162842 0.7749999761581421 68 76 17
0.42500001192092896 -1.524999976158142 0.75 68 76 17
0.4000000059604645 -1.524999976158142 0.824999988079071 75 77 18
0.44999998807907104 -1.524999976158142 0.824999988079071 75 77 18
0.42500001192092896 -1.5499999523162842 0.824999988079071 75 77 18
0.42500001192092896 -1.524999976158142 0.8500000238418579 75 77 18
0.4000000059604645 -1.475000023841858 0.4749999940395355 50 34 29
0.44999998807907104 -1.475000023841858 0.4749999940395355 50 34 29
0.42500001192092896 -1.5 0.4749999940395355 50 34 29
0.42500001192092896 -1.475000023841858 0.44999998807907104 50 34 29
0.4000000059604645 -1.475000023841858 0.5249999761581421 52 19 20
0.44999998807907104 -1.475000023841858 0.5249999761581421 52 19 20
0.42500001192092896 -1.5 0.5249999761581421 52 19 20
0.44999998807907104 -1.475000023841858 0.574999988079071 46 17 13
0.42500001192092896 -1.5 0.574999988079071 46 17 13
0.44999998807907104 -1.475000023841858 0.625 45 15 13
0.42500001192092896 -1.5 0.625 45 15 13
0.42500001192092896 -1.5 0.675000011920929 43 15 14
0.42500001192092896 -1.5 0.7250000238418579 39 12 10
0.42500001192092896 -1.5 0.875 50 18 14
0.44999998807907104 -1.475000023841858 0.925000011920929 65 18 16
0.42500001192092896 -1.5 0.925000011920929 65 18 16
0.44999998807907104 -1.475000023841858 0.9750000238418579 60 16 15
0.42500001192092896 -1.5 0.9750000238418579 60 16 15
0.44999998807907104 -1.475000023841858 1.024999976158142 73 18 19
0.42500001192092896 -1.5 1.024999976158142 73 18 19
0.44999998807907104 -1.475000023841858 1.0750000476837158 64 14 13
0.42500001192092896 -1.5 1.0750000476837158 64 14 13
0.44999998807907104 -1.475000023841858 1.125 68 19 14
0.42500001192092896 -1.5 1.125 68 19 14
0.42500001192092896 -1.475000023841858 1.149999976158142 68 19 14
0.4000000059604645 -1.4249999523162842 0.42500001192092896 53 47 29
0.44999998807907104 -1.4249999523162842 0.42500001192092896 53 47 29
0.42500001192092896 -1.4500000476837158 0.42500001192092896 53 47 29
0.42500001192092896 -1.4249999523162842 0.4000000059604645 53 47 29
0.44999998807907104 -1.4249999523162842 1.024999976158142 66 17 18
0.44999998807907104 -1.4249999523162842 1.0750000476837158 60 16 15
0.44999998807907104 -1.4249999523162842 1.125 58 15 12
0.44999998807907104 -1.4249999523162842 1.1749999523162842 63 15 20
0.42500001192092896 -1.4500000476837158 1.1749999523162842 63 15 20
0.44999998807907104 -1.4249999523162842 1.225000023841858 67 13 14
0.42500001192092896 -1.4500000476837158 1.225000023841858 67 13 14
0.44999998807907104 -1.4249999523162842 1.274999976158142 64 16 17
0.42500001192092896 -1.4500000476837158 1.274999976158142 64 16 17
0.44999998807907104 -1.4249999523162842 1.3250000476837158 108 88 64
0.42500001192092896 -1.4500000476837158 1.3250000476837158 108 88 64
0.42500001192092896 -1.4249999523162842 1.350000023841858 108 88 64
0.42500001192092896 -1.375 0.4000000059604645 255 255 255
0.44999998807907104 -1.375 0.9750000238418579 72 17 17
0.44999998807907104 -1.375 1.024999976158142 69 16 17
0.42500001192092896 -1.350000023841858 1.024999976158142 69 16 17
0.44999998807907104 -1.375 1.0750000476837158 61 19 19
0.42500001192092896 -1.350000023841858 1.0750000476837158 61 19 19
0.44999998807907104 -1.375 1.125 59 17 16
0.42500001192092896 -1.350000023841858 1.125 59 17 16
0.44999998807907104 -1.375 1.1749999523162842 71 16 13
0.42500001192092896 -1.350000023841858 1.1749999523162842 71 16 13
0.44999998807907104 -1.375 1.225000023841858 67 16 17
0.42500001192092896 -1.350000023841858 1.225000023841858 67 16 17
0.44999998807907104 -1.375 1.274999976158142 71 26 18
0.42500001192092896 -1.350000023841858 1.274999976158142 71 26 18
0.44999998807907104 -1.375 1.3250000476837158 92 62 48
0.42500001192092896 -1.399999976158142 1.375 73 31 30
0.42500001192092896 -1.399999976158142 1.4249999523162842 125 92 62
0.4000000059604645 -1.375 1.475000023841858 248 181 151
0.42500001192092896 -1.399999976158142 1.475000023841858 248 181 151
0.42500001192092896 -1.375 1.5 248 181 151
0.4000000059604645 -1.3250000476837158 0.375 61 25 20
0.42500001192092896 -1.350000023841858 0.375 61 25 20
0.42500001192092896 -1.3250000476837158 0.3499999940395355 61 25 20
0.44999998807907104 -1.3250000476837158 0.925000011920929 76 18 16
0.42500001192092896 -1.2999999523162842 0.925000011920929 76 18 16
0.44999998807907104 -1.3250000476837158 0.9750000238418579 75 20 19
0.42500001192092896 -1.2999999523162842 0.9750000238418579 75 20 19
0.42500001192092896 -1.3250000476837158 1.0 75 20 19
0.44999998807907104 -1.3250000476837158 1.3250000476837158 103 64 68
0.42500001192092896 -1.2999999523162842 1.3250000476837158 103 64 68
0.42500001192092896 -1.3250000476837158 1.2999999523162842 103 64 68
0.44999998807907104 -1.3250000476837158 1.375 91 54 40
0.44999998807907104 -1.3250000476837158 1.4249999523162842 144 97 66
0.42500001192092896 -1.2999999523162842 1.4249999523162842 144 97 66
0.44999998807907104 -1.3250000476837158 1.475000023841858 253 172 129
0.42500001192092896 -1.2999999523162842 1.475000023841858 253 172 129
0.42500001192092896 -1.3250000476837158 1.5 253 172 129
0.4000000059604645 -1.274999976158142 0.32499998807907104 56 60 44
0.42500001192092896 -1.2999999523162842 0.32499998807907104 56 60 44
0.42500001192092896 -1.25 0.32499998807907104 56 60 44
0.42500001192092896 -1.274999976158142 0.30000001192092896 56 60 44
0.4000000059604645 -1.274999976158142 0.375 46 34 31
0.42500001192092896 -1.25 0.375 46 34 31
0.4000000059604645 -1.274999976158142 0.42500001192092896 32 18 22
0.42500001192092896 -1.25 0.675000011920929 60 15 16
0.42500001192092896 -1.25 0.7250000238418579 62 13 15
0.44999998807907104 -1.274999976158142 0.7749999761581421 63 13 17
0.42500001192092896 -1.25 0.7749999761581421 63 13 17
0.44999998807907104 -1.274999976158142 0.824999988079071 41 13 17
0.42500001192092896 -1.25 0.824999988079071 41 13 17
0.44999998807907104 -1.274999976158142 0.875 62 15 21
0.42500001192092896 -1.25 0.875 62 15 21
0.42500001192092896 -1.274999976158142 0.8999999761581421 62 15 21
0.44999998807907104 -1.274999976158142 1.375 90 56 45
0.42500001192092896 -1.25 1.375 90 56 45
0.42500001192092896 -1.274999976158142 1.350000023841858 90 56 45
0.42500001192092896 -1.274999976158142 1.399999976158142 90 56 45
0.4000000059604645 -1.225000023841858 0.42500001192092896 36 25 20
0.44999998807907104 -1.225000023841858 0.42500001192092896 36 25 20
0.42500001192092896 -1.2000000476837158 0.42500001192092896 36 25 20
0.42500001192092896 -1.225000023841858 0.4000000059604645 36 25 20
0.4000000059604645 -1.225000023841858 0.4749999940395355 48 33 29
0.42500001192092896 -1.2000000476837158 0.4749999940395355 48 33 29
0.42500001192092896 -1.2000000476837158 0.574999988079071 76 14 17
0.42500001192092896 -1.2000000476837158 0.625 58 12 13
0.42500001192092896 -1.225000023841858 0.6499999761581421 58 12 13
0.4000000059604645 -1.1749999523162842 0.02500000037252903 81 59 45
0.42500001192092896 -1.2000000476837158 0.02500000037252903 81 59 45
0.42500001192092896 -1.149999976158142 0.02500000037252903 81 59 45
0.42500001192092896 -1.1749999523162842 0.0 81 59 45
0.42500001192092896 -1.1749999523162842 0.05000000074505806 81 59 45
0.4000000059604645 -1.1749999523162842 0.5249999761581421 40 14 18
0.42500001192092896 -1.149999976158142 0.5249999761581421 40 14 18
0.42500001192092896 -1.1749999523162842 0.5 40 14 18
0.42500001192092896 -1.1749999523162842 0.5499999523162842 40 14 18
0.5 -1.475000023841858 0.675000011920929 50 16 16
0.4749999940395355 -1.5 0.675000011920929 50 16 16
0.4749999940395355 -1.475000023841858 0.6499999761581421 50 16 16
0.5 -1.475000023841858 0.7250000238418579 53 15 16
0.4749999940395355 -1.5 0.7250000238418579 53 15 16
0.5 -1.475000023841858 0.7749999761581421 51 12 15
0.4749999940395355 -1.5 0.7749999761581421 51 12 15
0.5 -1.475000023841858 0.824999988079071 53 18 15
0.4749999940395355 -1.5 0.824999988079071 53 18 15
0.5 -1.475000023841858 0.875 71 20 22
0.4749999940395355 -1.5 0.875 71 20 22
0.4749999940395355 -1.475000023841858 0.8999999761581421 71 20 22
0.5 -1.4249999523162842 0.4749999940395355 43 13 12
0.4749999940395355 -1.4500000476837158 0.4749999940395355 43 13 12
0.4749999940395355 -1.4249999523162842 0.44999998807907104 43 13 12
0.5 -1.4249999523162842 0.5249999761581421 48 15 14
0.4749999940395355 -1.4500000476837158 0.5249999761581421 48 15 14
0.5 -1.4249999523162842 0.574999988079071 58 15 12
0.4749999940395355 -1.4500000476837158 0.574999988079071 58 15 12
0.5 -1.4249999523162842 0.625 51 14 10
0.4749999940395355 -1.4500000476837158 0.625 51 14 10
0.5 -1.4249999523162842 0.675000011920929 51 14 16
0.5 -1.4249999523162842 0.7250000238418579 53 16 13
0.5 -1.4249999523162842 0.7749999761581421 56 16 16
0.5 -1.4249999523162842 0.824999988079071 62 17 17
0.5 -1.4249999523162842 0.875 67 16 17
0.5 -1.4249999523162842 0.925000011920929 74 17 18
0.4749999940395355 -1.4500000476837158 0.925000011920929 74 17 18
0.5 -1.4249999523162842 0.9750000238418579 70 22 23
0.4749999940395355 -1.4500000476837158 0.9750000238418579 70 22 23
0.4749999940395355 -1.399999976158142 0.9750000238418579 70 22 23
0.4749999940395355 -1.4249999523162842 1.0 70 22 23
0.44999998807907104 -1.4249999523162842 1.4249999523162842 94 81 60
0.4749999940395355 -1.4500000476837158 1.4249999523162842 94 81 60
0.4749999940395355 -1.4249999523162842 1.399999976158142 94 81 60
0.4749999940395355 -1.4249999523162842 1.4500000476837158 94 81 60
0.5 -1.375 0.42500001192092896 51 14 16
0.4749999940395355 -1.399999976158142 0.42500001192092896 51 14 16
0.4749999940395355 -1.375 0.4000000059604645 51 14 16
0.5 -1.375 0.574999988079071 63 16 17
0.5 -1.375 0.625 53 15 15
0.5 -1.375 0.675000011920929 53 14 16
0.5 -1.375 0.7250000238418579 58 15 16
0.5 -1.375 0.7749999761581421 59 14 16
0.5 -1.375 0.824999988079071 61 14 18
0.5 -1.375 0.875 67 17 19
0.5 -1.375 0.925000011920929 79 16 22
0.4749999940395355 -1.350000023841858 0.925000011920929 79 16 22
0.4749999940395355 -1.375 0.9500000476837158 79 16 22
0.5 -1.375 1.375 118 78 94
0.4749999940395355 -1.399999976158142 1.375 118 78 94
0.4749999940395355 -1.350000023841858 1.375 118 78 94
0.4749999940395355 -1.375 1.350000023841858 118 78 94
0.4749999940395355 -1.350000023841858 1.4249999523162842 114 67 58
0.4749999940395355 -1.399999976158142 1.475000023841858 255 184 143
0.4749999940395355 -1.350000023841858 1.475000023841858 255 184 143
0.4749999940395355 -1.375 1.5 255 184 143
0.44999998807907104 -1.3250000476837158 0.32499998807907104 74 52 41
0.5 -1.3250000476837158 0.32499998807907104 74 52 41
0.4749999940395355 -1.350000023841858 0.32499998807907104 74 52 41
0.4749999940395355 -1.3250000476837158 0.30000001192092896 74 52 41
0.4749999940395355 -1.350000023841858 0.375 75 52 41
0.5 -1.3250000476837158 0.42500001192092896 67 40 28
0.5 -1.3250000476837158 0.4749999940395355 52 17 14
0.5 -1.3250000476837158 0.5249999761581421 51 14 13
0.5 -1.3250000476837158 0.574999988079071 64 15 14
0.5 -1.3250000476837158 0.625 56 15 15
0.5 -1.3250000476837158 0.675000011920929 57 15 16
0.5 -1.3250000476837158 0.7250000238418579 62 15 17
0.5 -1.3250000476837158 0.7749999761581421 65 16 16
0.4749999940395355 -1.2999999523162842 0.7749999761581421 65 16 16
0.5 -1.3250000476837158 0.824999988079071 70 15 16
0.4749999940395355 -1.2999999523162842 0.824999988079071 70 15 16
0.5 -1.3250000476837158 0.875 74 20 19
0.4749999940395355 -1.2999999523162842 0.875 74 20 19
0.4749999940395355 -1.3250000476837158 0.8999999761581421 74 20 19
0.44999998807907104 -1.274999976158142 0.2750000059604645 70 55 39
0.4749999940395355 -1.2999999523162842 0.2750000059604645 70 55 39
0.4749999940395355 -1.274999976158142 0.25 70 55 39
0.5 -1.274999976158142 0.42500001192092896 68 35 27
0.4749999940395355 -1.25 0.42500001192092896 68 35 27
0.5 -1.274999976158142 0.4749999940395355 57 46 21
0.5 -1.274999976158142 0.625 66 16 16
0.5 -1.274999976158142 0.675000011920929 66 16 15
0.4749999940395355 -1.25 0.675000011920929 66 16 15
0.5 -1.274999976158142 0.7250000238418579 72 22 21
0.4749999940395355 -1.25 0.7250000238418579 72 22 21
0.4749999940395355 -1.274999976158142 0.75 72 22 21
0.44999998807907104 -1.225000023841858 0.02500000037252903 58 48 41
0.5 -1.225000023841858 0.02500000037252903 58 48 41
0.4749999940395355 -1.25 0.02500000037252903 58 48 41
0.4749999940395355 -1.225000023841858 0.0 58 48 41
0.4749999940395355 -1.225000023841858 0.05000000074505806 58 48 41
0.44999998807907104 -1.225000023841858 0.125 62 65 53
0.5 -1.225000023841858 0.125 62 65 53
0.4749999940395355 -1.25 0.125 62 65 53
0.4749999940395355 -1.225000023841858 0.10000000149011612 62 65 53
0.44999998807907104 -1.225000023841858 0.17499999701976776 67 44 44
0.5 -1.225000023841858 0.17499999701976776 67 44 44
0.4749999940395355 -1.25 0.17499999701976776 67 44 44
0.44999998807907104 -1.225000023841858 0.22499999403953552 77 52 43
0.4749999940395355 -1.25 0.22499999403953552 77 52 43
0.4749999940395355 -1.2000000476837158 0.22499999403953552 77 52 43
0.44999998807907104 -1.225000023841858 0.2750000059604645 85 55 44
0.4749999940395355 -1.2000000476837158 0.2750000059604645 85 55 44
